# .PCD v0.7 - Point Cloud Data file format
VERSION 0.7
FIELDS x y z
SIZE 4 4 4
TYPE F F F
COUNT 1 1 1
WIDTH 1666
HEIGHT 1
VIEWPOINT 0 0 0 1 0 0 0
POINTS 1666
DATA ascii
-0.10006 -0.29458 -1.0021 
-0.096498 -0.29433 -1.0018 
-0.086088 -0.2848 -1.0029 
-0.085265 -0.27484 -1.0012 
-0.088195 -0.2699 -1.0038 
-0.046625 -0.31233 -1.0015 
-0.047507 -0.31075 -1.0028 
-0.044319 -0.31223 -1.002 
-0.04982 -0.31006 -1.002 
-0.04133 -0.30984 -1.0029 
-0.037606 -0.30746 -1.002 
-0.033936 -0.30896 -1.0029 
-0.036542 -0.30883 -1.0012 
-0.051548 -0.30863 -1.0023 
-0.040589 -0.30629 -1.0028 
-0.039159 -0.30744 -1.0021 
-0.034584 -0.30668 -1.0049 
-0.039448 -0.30599 -1.0026 
-0.040915 -0.3039 -1.0035 
-0.059594 -0.30237 -1.0018 
-0.061999 -0.30057 -1.0016 
-0.065386 -0.29701 -1.001 
-0.070435 -0.29241 -1.0001 
-0.088626 -0.28985 -1.0015 
-0.087236 -0.28738 -1.0012 
-0.073396 -0.28795 -1.0015 
-0.082259 -0.2787 -1.0003 
-0.087852 -0.27496 -1.0008 
-0.088421 -0.27195 -1.0001 
-0.04213 -0.31283 -1.0013 
-0.044853 -0.31365 -1.0002 
-0.048949 -0.31201 -1.0002 
-0.03994 -0.31107 -1.0017 
-0.031749 -0.31094 -1.0015 
-0.034722 -0.31064 -1.0004 
-0.038173 -0.30824 -1.0013 
-0.037757 -0.30946 -1.0008 
-0.055184 -0.30744 -1.0004 
-0.058061 -0.30502 -0.9996 
-0.068267 -0.2949 -0.99949 
-0.091315 -0.29185 -0.99986 
-0.07661 -0.2849 -1.0003 
-0.086869 -0.2847 -1.0005 
-0.079352 -0.28204 -1.0007 
-0.087184 -0.27865 -1.0005 
-0.039707 -0.31401 -0.99962 
-0.039112 -0.3125 -1.0006 
-0.036187 -0.31006 -1.0005 
-0.052042 -0.30996 -0.99924 
-0.061498 -0.30311 -0.99905 
-0.063973 -0.30026 -0.99894 
-0.099648 -0.29414 -0.99948 
-0.094862 -0.29341 -0.9992 
-0.088877 -0.28881 -0.99884 
-0.07505 -0.28858 -0.99842 
-0.087358 -0.28272 -0.9982 
-0.084334 -0.27743 -0.99833 
-0.08948 -0.27216 -0.99896 
-0.041589 -0.31499 -0.99864 
-0.043203 -0.3144 -0.99936 
-0.036776 -0.31319 -0.99919 
-0.036816 -0.31156 -0.99996 
-0.046773 -0.31382 -0.99844 
-0.030538 -0.31351 -0.99873 
-0.033114 -0.31216 -0.99904 
-0.035014 -0.31185 -0.99916 
-0.034271 -0.31132 -0.99969 
-0.07372 -0.29079 -0.99807 
-0.087919 -0.28602 -0.99794 
-0.080226 -0.28273 -0.99834 
-0.087418 -0.27476 -0.99759 
-0.038462 -0.31557 -0.99822 
-0.036905 -0.31449 -0.99859 
-0.049772 -0.31274 -0.99723 
-0.056474 -0.30762 -0.99757 
-0.066633 -0.29804 -0.99795 
-0.09736 -0.29333 -0.99693 
-0.093778 -0.29211 -0.99673 
-0.091338 -0.2906 -0.99722 
-0.077054 -0.28684 -0.99696 
-0.079184 -0.28465 -0.99729 
-0.088088 -0.27977 -0.99664 
-0.088488 -0.27607 -0.99759 
-0.033819 -0.31735 -0.99732 
-0.036097 -0.31685 -0.99766 
-0.035037 -0.31564 -0.99799 
-0.038828 -0.31681 -0.99713 
-0.042217 -0.31621 -0.99666 
-0.032596 -0.31478 -0.99741 
-0.045496 -0.31545 -0.99597 
-0.034496 -0.31344 -0.99826 
-0.030167 -0.31483 -0.9971 
-0.031471 -0.31443 -0.99741 
-0.026408 -0.31427 -0.99979 
-0.02743 -0.31566 -0.99707 
-0.032853 -0.31323 -0.99797 
-0.052882 -0.31096 -0.99511 
-0.059497 -0.30644 -0.9961 
-0.061829 -0.30405 -0.99626 
-0.063536 -0.3018 -0.99723 
-0.065736 -0.30061 -0.99645 
-0.070678 -0.29531 -0.99643 
-0.07388 -0.29243 -0.99602 
-0.10032 -0.29349 -0.99591 
-0.089798 -0.28875 -0.99668 
-0.083817 -0.28083 -0.9953 
-0.085928 -0.27725 -0.99594 
-0.089905 -0.27309 -0.99637 
-0.089429 -0.27249 -0.99612 
-0.033896 -0.31913 -0.99673 
-0.036194 -0.31851 -0.99653 
-0.031778 -0.31789 -0.99655 
-0.032526 -0.31967 -0.9963 
-0.038855 -0.31821 -0.99551 
-0.031126 -0.31585 -0.99659 
-0.029595 -0.31573 -0.99599 
-0.076441 -0.28918 -0.99449 
-0.089664 -0.28735 -0.99542 
-0.088673 -0.28413 -0.99542 
-0.081766 -0.28369 -0.99464 
-0.023722 -0.32993 -0.99513 
-0.022547 -0.32918 -0.99614 
-0.022131 -0.33084 -0.99565 
-0.024711 -0.3281 -0.99427 
-0.02315 -0.3247 -0.99636 
-0.02391 -0.32519 -0.99501 
-0.024254 -0.32361 -0.99482 
-0.023203 -0.32271 -0.99587 
-0.021515 -0.32207 -0.99612 
-0.022493 -0.32063 -0.99516 
-0.031854 -0.32124 -0.9954 
-0.034158 -0.32054 -0.99583 
-0.03153 -0.31976 -0.99581 
-0.036387 -0.32054 -0.99486 
-0.029192 -0.31671 -0.99519 
-0.029714 -0.31835 -0.99508 
-0.024914 -0.3174 -0.99407 
-0.026998 -0.31682 -0.99492 
-0.024956 -0.3164 -0.99725 
-0.023355 -0.31788 -0.99484 
-0.041363 -0.31769 -0.99455 
-0.049258 -0.31396 -0.99439 
-0.055668 -0.31006 -0.99345 
-0.064081 -0.30249 -0.99563 
-0.069003 -0.2992 -0.9946 
-0.073666 -0.29425 -0.99404 
-0.098852 -0.29318 -0.99413 
-0.094753 -0.29166 -0.9938 
-0.092864 -0.29065 -0.99442 
-0.091312 -0.28923 -0.9944 
-0.079853 -0.28638 -0.99406 
-0.090036 -0.27824 -0.99278 
-0.090401 -0.27552 -0.99353 
-0.087842 -0.27625 -0.99402 
-0.021975 -0.3329 -0.99489 
-0.019687 -0.33354 -0.99494 
-0.022087 -0.33495 -0.99366 
-0.01609 -0.33426 -0.99509 
-0.018847 -0.33546 -0.99427 
-0.02362 -0.3319 -0.99462 
-0.02 -0.33012 -0.99611 
-0.025123 -0.33136 -0.99343 
-0.024159 -0.32611 -0.99446 
-0.022971 -0.32644 -0.99646 
-0.028372 -0.32745 -0.99395 
-0.030282 -0.32703 -0.99352 
-0.029395 -0.32585 -0.99473 
-0.02709 -0.32564 -0.9946 
-0.031648 -0.32527 -0.9941 
-0.030039 -0.32382 -0.99508 
-0.028592 -0.32379 -0.99503 
-0.032146 -0.32329 -0.99478 
-0.025564 -0.32288 -0.99427 
-0.030557 -0.32227 -0.99513 
-0.027352 -0.32164 -0.99424 
-0.024134 -0.32127 -0.99432 
-0.0071106 -0.32132 -0.99686 
-0.0064734 -0.32249 -0.99395 
-0.0093241 -0.32125 -0.99444 
-0.034194 -0.32237 -0.9947 
-0.029022 -0.32133 -0.99485 
-0.013135 -0.31993 -0.99387 
-0.01088 -0.32037 -0.99684 
-0.012154 -0.32034 -0.99306 
-0.030137 -0.32027 -0.99515 
-0.028678 -0.31942 -0.9944 
-0.020873 -0.32037 -0.99534 
-0.022469 -0.3192 -0.99479 
-0.017575 -0.31874 -0.99556 
-0.017392 -0.31986 -0.99464 
-0.019124 -0.32047 -0.99485 
-0.015301 -0.31981 -0.99404 
-0.039318 -0.31922 -0.99387 
-0.037218 -0.32148 -0.99333 
-0.021721 -0.31853 -0.99559 
-0.028108 -0.31715 -0.99436 
-0.058385 -0.30873 -0.99226 
-0.061489 -0.3062 -0.99318 
-0.063346 -0.30422 -0.9939 
-0.066386 -0.30302 -0.99263 
-0.071837 -0.2964 -0.994 
-0.101 -0.29297 -0.99304 
-0.075738 -0.2915 -0.99266 
-0.096493 -0.29215 -0.99274 
-0.09068 -0.28753 -0.99356 
-0.090637 -0.28566 -0.99236 
-0.089594 -0.28292 -0.99338 
-0.090009 -0.28081 -0.99211 
-0.086762 -0.27803 -0.9936 
-0.089722 -0.27366 -0.99323 
-0.090582 -0.27347 -0.99395 
-0.0096853 -0.34154 -0.99414 
-0.0064121 -0.34031 -0.99399 
-0.0089992 -0.3438 -0.99336 
-0.010932 -0.33942 -0.99444 
-0.013351 -0.34148 -0.99385 
-0.015726 -0.33907 -0.99376 
-0.012888 -0.3377 -0.99486 
-0.0085507 -0.33738 -0.99462 
-0.0040235 -0.34071 -0.99302 
-0.0055411 -0.33709 -0.99397 
-0.016972 -0.33695 -0.99415 
-0.0059181 -0.33359 -0.99387 
-0.019818 -0.33779 -0.99274 
-0.0038672 -0.33502 -0.99292 
-0.024438 -0.33347 -0.99327 
-0.006556 -0.33074 -0.99312 
-0.0092557 -0.33428 -0.99491 
-0.0093516 -0.33043 -0.9943 
-0.026243 -0.32898 -0.99307 
-0.011845 -0.32925 -0.99488 
-0.011678 -0.32683 -0.99405 
-0.026579 -0.32775 -0.99372 
-0.025288 -0.32683 -0.99413 
-0.014941 -0.32534 -0.99496 
-0.01325 -0.32371 -0.99295 
-0.024974 -0.32479 -0.99446 
-0.016255 -0.3226 -0.99423 
-0.0040907 -0.32291 -0.99558 
-0.0035971 -0.32393 -0.99272 
-0.034402 -0.32395 -0.99338 
-0.018922 -0.32214 -0.99523 
-0.01698 -0.32104 -0.99403 
-0.026482 -0.32058 -0.99338 
-0.025403 -0.32051 -0.99331 
-0.014079 -0.31929 -0.99499 
-0.027542 -0.31953 -0.99354 
-0.023618 -0.31847 -0.99372 
-0.024402 -0.3191 -0.99301 
-0.027833 -0.31839 -0.99362 
-0.026895 -0.31748 -0.99308 
-0.042219 -0.31878 -0.9911 
-0.045651 -0.31693 -0.99213 
-0.05216 -0.31318 -0.99177 
-0.068704 -0.30099 -0.99239 
-0.071557 -0.29795 -0.99199 
-0.091789 -0.28831 -0.99211 
-0.085939 -0.28113 -0.99146 
-0.012795 -0.34621 -0.99187 
-0.013908 -0.34343 -0.99295 
-0.010758 -0.34548 -0.99258 
-0.006884 -0.34425 -0.99297 
-0.0043159 -0.34342 -0.99269 
-0.018255 -0.34023 -0.99205 
-0.0026918 -0.33748 -0.99234 
-0.023554 -0.33694 -0.99177 
-0.02506 -0.33505 -0.99186 
-0.0035272 -0.33181 -0.99171 
-0.026155 -0.33211 -0.99139 
-0.0079836 -0.32812 -0.99265 
-0.026127 -0.33025 -0.99246 
-0.028224 -0.32867 -0.99278 
-0.03033 -0.32826 -0.99185 
-0.009024 -0.32558 -0.99162 
0.0048626 -0.326 -0.99096 
0.00034076 -0.3257 -0.99113 
0.0029001 -0.32449 -0.99524 
-0.033175 -0.32606 -0.99243 
-0.0018831 -0.32496 -0.99146 
-0.00060421 -0.32403 -0.99502 
0.0058077 -0.32224 -0.99362 
0.0029848 -0.32228 -0.9924 
0.0053693 -0.32325 -0.99149 
0.0080122 -0.32299 -0.99178 
0.0086457 -0.32232 -0.99355 
-0.014877 -0.32168 -0.99297 
-0.015486 -0.32088 -0.9933 
-0.010208 -0.3211 -0.99189 
-0.0088754 -0.32161 -0.99089 
-0.0074166 -0.32215 -0.99088 
-0.036095 -0.32427 -0.99139 
-0.026846 -0.31862 -0.99247 
-0.025992 -0.31928 -0.99228 
-0.039326 -0.32069 -0.99145 
-0.024672 -0.3179 -0.99289 
-0.025685 -0.31748 -0.99217 
-0.060925 -0.30764 -0.99011 
-0.0634 -0.30549 -0.99159 
-0.099342 -0.29264 -0.99136 
-0.093182 -0.28996 -0.99169 
-0.078827 -0.28916 -0.99133 
-0.082568 -0.28556 -0.99048 
-0.090837 -0.27433 -0.99188 
-0.0058149 -0.34644 -0.99224 
-0.0027655 -0.34709 -0.99189 
-0.0038384 -0.34904 -0.99158 
-0.011586 -0.34846 -0.99153 
-0.0095289 -0.3504 -0.9912 
-0.0024616 -0.3447 -0.99192 
-0.015505 -0.34422 -0.99181 
-0.014381 -0.34586 -0.99108 
-0.0011703 -0.34225 -0.99161 
-0.018191 -0.34367 -0.99056 
0.00075721 -0.33886 -0.99056 
-0.021049 -0.33969 -0.99097 
-0.0013058 -0.33312 -0.99087 
-0.025492 -0.33617 -0.99057 
-0.026243 -0.33359 -0.9902 
-0.0053088 -0.32847 -0.99073 
-0.027085 -0.33031 -0.99146 
-0.0066547 -0.32689 -0.99061 
0.0089735 -0.32625 -0.9918 
0.012117 -0.32603 -0.99328 
0.011767 -0.32777 -0.98922 
0.01801 -0.32636 -0.98985 
0.015205 -0.32728 -0.99035 
0.01682 -0.32514 -0.99253 
-0.028792 -0.32966 -0.99105 
0.0067129 -0.32504 -0.99519 
-0.033085 -0.32787 -0.98974 
0.0088618 -0.32332 -0.99039 
0.011471 -0.32297 -0.99256 
0.011155 -0.32387 -0.99011 
0.013304 -0.32354 -0.9906 
-0.011673 -0.32308 -0.99166 
-0.0099436 -0.32309 -0.99038 
0.0012635 -0.32264 -0.99051 
0.0037212 -0.32291 -0.9902 
-0.00554 -0.32295 -0.98959 
-0.0003438 -0.32155 -0.99216 
-0.013587 -0.32145 -0.99216 
-0.01202 -0.32166 -0.99141 
-0.011979 -0.32088 -0.99196 
-0.024903 -0.31842 -0.99206 
-0.026369 -0.31801 -0.9918 
-0.025946 -0.3177 -0.99147 
-0.048285 -0.31651 -0.99 
-0.055135 -0.31238 -0.98932 
-0.074299 -0.29541 -0.99027 
-0.075356 -0.29344 -0.99094 
-0.10183 -0.29225 -0.99053 
-0.097023 -0.29195 -0.99043 
-0.091785 -0.28681 -0.99011 
-0.091003 -0.28314 -0.99028 
-0.087846 -0.27864 -0.99092 
-0.091263 -0.27675 -0.99031 
-0.090148 -0.2745 -0.99122 
-0.089437 -0.27662 -0.98935 
-0.004599 -0.3544 -0.99044 
-0.0023271 -0.35367 -0.99042 
-0.003457 -0.35644 -0.98979 
-0.0043893 -0.35158 -0.99111 
-0.0072181 -0.35252 -0.99068 
-0.001838 -0.3505 -0.99072 
-0.01284 -0.35154 -0.99037 
-0.014085 -0.3484 -0.99095 
-0.00089926 -0.34812 -0.99074 
-4.1195e-05 -0.34529 -0.99066 
-0.015615 -0.34661 -0.99034 
-0.016847 -0.34621 -0.98976 
-0.014658 -0.34641 -0.98966 
0.0013143 -0.34179 -0.99015 
-0.02067 -0.3416 -0.9898 
-0.00025768 -0.33569 -0.99085 
-0.023973 -0.33856 -0.99038 
-0.0009854 -0.33025 -0.98919 
-0.0038224 -0.32949 -0.9904 
-0.027551 -0.3313 -0.98948 
0.0080791 -0.3272 -0.98865 
-0.0082201 -0.32439 -0.98939 
0.0063695 -0.32339 -0.98929 
-0.0034544 -0.32424 -0.98896 
-0.010985 -0.32228 -0.99095 
-0.0010018 -0.32192 -0.99006 
-0.010668 -0.32149 -0.99092 
-0.038777 -0.32268 -0.9894 
-0.0099955 -0.32173 -0.99041 
-0.025475 -0.31818 -0.99155 
-0.025759 -0.31779 -0.99134 
-0.058382 -0.31032 -0.98868 
-0.067755 -0.30322 -0.99009 
-0.065901 -0.30556 -0.98888 
-0.070248 -0.30124 -0.98928 
-0.071638 -0.29929 -0.98934 
-0.073467 -0.29752 -0.98868 
-0.077389 -0.29201 -0.98956 
-0.095585 -0.29081 -0.98854 
-0.093313 -0.28928 -0.98974 
-0.085575 -0.2832 -0.98861 
-0.091091 -0.27997 -0.98947 
-0.0013159 -0.35625 -0.98934 
-0.00054779 -0.35402 -0.98952 
-0.0077881 -0.35648 -0.9889 
-0.011459 -0.35421 -0.98958 
2.4255e-05 -0.35172 -0.9895 
-0.0039686 -0.34858 -0.98928 
-0.0059278 -0.35 -0.98873 
-0.0034696 -0.34997 -0.98872 
0.0010993 -0.34851 -0.98922 
-0.016344 -0.34971 -0.98958 
-0.0020686 -0.34924 -0.98821 
-0.018861 -0.34526 -0.98956 
0.0022891 -0.3446 -0.98883 
-0.020887 -0.34332 -0.9893 
-0.023041 -0.34008 -0.98947 
-0.025788 -0.33761 -0.98932 
-0.024544 -0.33998 -0.98898 
0.0018093 -0.33553 -0.98927 
-0.026267 -0.33634 -0.98905 
-0.02634 -0.33528 -0.98877 
-0.026678 -0.33284 -0.98879 
0.014399 -0.32826 -0.98852 
-0.030458 -0.33051 -0.98763 
0.023913 -0.32385 -0.98903 
0.022014 -0.32569 -0.98837 
0.020704 -0.32411 -0.99092 
-0.0014176 -0.32561 -0.98766 
0.0023931 -0.32631 -0.98844 
0.012961 -0.32375 -0.98848 
0.023356 -0.32274 -0.99021 
-0.0069385 -0.32527 -0.98864 
0.027414 -0.32177 -0.99128 
0.027382 -0.32311 -0.98908 
0.0254 -0.32261 -0.98946 
0.029749 -0.32344 -0.98858 
-0.036397 -0.32602 -0.98865 
0.0020893 -0.32276 -0.98818 
0.00049293 -0.3225 -0.98913 
-0.0089005 -0.32299 -0.98884 
-0.008992 -0.32235 -0.98909 
-0.0074461 -0.32243 -0.9889 
-0.0089152 -0.32192 -0.98977 
-0.04138 -0.32145 -0.98794 
-0.044761 -0.31927 -0.98819 
-0.052684 -0.31469 -0.98778 
-0.063298 -0.30764 -0.9879 
-0.1003 -0.29258 -0.98878 
-0.080475 -0.28964 -0.98816 
-0.091981 -0.28526 -0.9877 
-0.088172 -0.27993 -0.98752 
-0.0022956 -0.36127 -0.98834 
-0.0042519 -0.36149 -0.98833 
-0.0023626 -0.35994 -0.98882 
-0.0015188 -0.36091 -0.98781 
-0.0042832 -0.35841 -0.98919 
-0.0014549 -0.35866 -0.98868 
-0.0082057 -0.3603 -0.98754 
-0.00064664 -0.3577 -0.98784 
-0.00032896 -0.35631 -0.98834 
-0.010019 -0.35888 -0.9877 
-0.01262 -0.35825 -0.98749 
0.00026644 -0.35494 -0.98815 
0.00074766 -0.35338 -0.98835 
-0.0037678 -0.35194 -0.9883 
-0.005766 -0.3531 -0.98789 
-0.0036021 -0.355 -0.98791 
-0.0031173 -0.35331 -0.988 
-0.014318 -0.35517 -0.98846 
0.0013965 -0.3516 -0.98835 
-0.016806 -0.35199 -0.98862 
-0.0073975 -0.35148 -0.98821 
-0.001705 -0.35147 -0.98752 
-0.0086819 -0.35189 -0.98815 
-0.0091726 -0.35111 -0.98784 
0.0019355 -0.35007 -0.98821 
-0.019011 -0.34817 -0.98857 
-0.015031 -0.34826 -0.98825 
-0.013789 -0.34806 -0.9882 
-0.014486 -0.34717 -0.98918 
0.0026796 -0.34747 -0.98783 
-0.02267 -0.34542 -0.98762 
-0.011249 -0.34214 -0.98707 
-0.012228 -0.34276 -0.98768 
-0.011591 -0.34303 -0.98755 
0.0049544 -0.34037 -0.98639 
-0.02321 -0.34242 -0.98848 
-0.012025 -0.34192 -0.98713 
0.0034367 -0.3382 -0.98786 
-0.024731 -0.34195 -0.9877 
-0.022197 -0.34098 -0.98899 
-0.026326 -0.33886 -0.98781 
-0.02665 -0.33698 -0.98774 
0.0017631 -0.3321 -0.98818 
-0.02759 -0.33217 -0.98756 
-0.0015799 -0.32773 -0.9879 
0.01686 -0.32808 -0.98806 
0.018549 -0.32747 -0.98794 
-0.0052412 -0.32624 -0.98849 
0.033559 -0.32394 -0.9897 
0.033101 -0.32485 -0.98719 
0.039321 -0.32406 -0.98769 
0.03902 -0.32295 -0.99082 
0.042102 -0.32398 -0.98618 
0.011001 -0.32402 -0.9872 
0.0078248 -0.3234 -0.98781 
0.014927 -0.32318 -0.9895 
0.021489 -0.32256 -0.988 
0.018336 -0.32269 -0.98892 
0.019581 -0.32342 -0.9874 
0.025689 -0.32401 -0.98797 
-0.035186 -0.32839 -0.98662 
0.0082027 -0.32334 -0.98865 
0.016578 -0.32293 -0.98817 
0.016332 -0.32252 -0.98982 
0.03067 -0.32055 -0.98877 
0.033731 -0.32189 -0.98783 
0.033804 -0.321 -0.99004 
0.035688 -0.32182 -0.98848 
0.041907 -0.32096 -0.98774 
0.040382 -0.32026 -0.99081 
0.040529 -0.32149 -0.98676 
0.00073438 -0.3219 -0.98754 
0.0043568 -0.32286 -0.98796 
-0.005075 -0.3237 -0.98813 
-0.049988 -0.31723 -0.98644 
-0.06943 -0.30327 -0.98686 
-0.076058 -0.2956 -0.98795 
-0.098017 -0.292 -0.98755 
-0.078849 -0.29194 -0.98806 
-0.093922 -0.28924 -0.98769 
-0.092606 -0.28738 -0.98767 
-0.083245 -0.28729 -0.98694 
-0.091504 -0.28215 -0.98756 
-0.091442 -0.2781 -0.98731 
-0.091398 -0.27599 -0.9887 
-0.0061618 -0.36356 -0.98707 
-0.002447 -0.36285 -0.9878 
-0.0030094 -0.36428 -0.98731 
-0.0012244 -0.3635 -0.98626 
-0.0015195 -0.36261 -0.98706 
-0.0011889 -0.36175 -0.98647 
-0.00097316 -0.35961 -0.98672 
-0.0038424 -0.35739 -0.98687 
-0.0061918 -0.35562 -0.98721 
-0.0060504 -0.35772 -0.98663 
-0.00039116 -0.35701 -0.98657 
0.00017307 -0.3555 -0.98672 
-0.015048 -0.35777 -0.98671 
0.0010008 -0.35356 -0.98645 
-0.017337 -0.3541 -0.9872 
0.0017487 -0.35191 -0.98715 
0.0027802 -0.34953 -0.98678 
-0.00060071 -0.3497 -0.98706 
-0.0011267 -0.35168 -0.98638 
-0.010683 -0.3515 -0.98677 
-0.010297 -0.34984 -0.98728 
-0.011169 -0.34969 -0.98729 
-0.012278 -0.34858 -0.98741 
1.2134e-05 -0.34753 -0.98587 
0.00030633 -0.34839 -0.9862 
-0.012897 -0.34662 -0.98721 
-0.010842 -0.34913 -0.98715 
-0.021705 -0.34974 -0.98621 
0.003623 -0.34558 -0.98703 
0.0043511 -0.34333 -0.98667 
-0.012388 -0.34437 -0.98706 
-0.012743 -0.34361 -0.98729 
-0.012912 -0.34256 -0.98647 
-0.010847 -0.34299 -0.98695 
-0.02203 -0.34112 -0.98696 
-0.020742 -0.34225 -0.98746 
-0.021844 -0.34026 -0.98807 
0.0046356 -0.33583 -0.98658 
0.0036996 -0.33382 -0.98688 
-0.02634 -0.33523 -0.9869 
0.017407 -0.33303 -0.98685 
0.016155 -0.332 -0.98738 
0.018245 -0.33072 -0.98765 
0.019231 -0.33175 -0.9872 
0.015258 -0.33075 -0.98729 
-0.026771 -0.33316 -0.98631 
0.017163 -0.32912 -0.98744 
0.00080579 -0.32857 -0.9865 
0.012658 -0.32867 -0.98625 
0.013639 -0.32893 -0.98649 
0.014753 -0.32902 -0.98699 
0.015811 -0.3289 -0.98736 
0.01084 -0.32836 -0.98432 
0.022836 -0.32654 -0.98695 
0.020511 -0.32732 -0.98712 
0.024479 -0.32627 -0.98603 
0.036319 -0.32409 -0.98921 
0.036426 -0.32478 -0.98666 
-0.0036577 -0.3256 -0.9875 
-0.001895 -0.32601 -0.98703 
0.0039286 -0.32693 -0.98553 
0.043269 -0.32244 -0.9897 
0.044259 -0.32324 -0.98671 
0.00034771 -0.32642 -0.98671 
0.0095032 -0.32407 -0.98591 
0.012993 -0.32353 -0.98651 
0.018277 -0.3232 -0.98753 
-0.00573 -0.32486 -0.98776 
-0.0031695 -0.3249 -0.98765 
0.0056041 -0.32274 -0.98647 
0.014957 -0.32308 -0.9874 
0.032196 -0.32209 -0.98627 
0.044324 -0.32092 -0.98677 
0.04352 -0.32005 -0.98931 
-0.0066201 -0.324 -0.98763 
-0.0078789 -0.32331 -0.98803 
-0.0046767 -0.3245 -0.98767 
0.0031626 -0.32292 -0.98638 
-0.0061272 -0.32338 -0.98795 
-0.040593 -0.32375 -0.98584 
-0.037851 -0.32677 -0.98561 
-0.0070356 -0.32316 -0.98789 
-0.062167 -0.31029 -0.98478 
-0.072048 -0.30024 -0.98766 
-0.07843 -0.29454 -0.98671 
-0.079859 -0.29208 -0.98666 
-0.081515 -0.29012 -0.98587 
-0.089992 -0.27701 -0.98737 
-0.090991 -0.27628 -0.98735 
-0.0021467 -0.36492 -0.98671 
-0.0019784 -0.36609 -0.98603 
-0.0036676 -0.36641 -0.9864 
-0.006156 -0.36554 -0.98604 
-0.0010724 -0.36429 -0.98534 
-0.0093801 -0.36286 -0.98619 
-0.0054798 -0.36032 -0.98583 
-0.0044262 -0.35946 -0.98567 
-0.0048496 -0.35861 -0.98639 
-0.0041871 -0.35823 -0.98549 
-0.0012229 -0.35759 -0.98491 
-0.0083148 -0.35718 -0.98622 
-0.00027424 -0.35556 -0.98499 
-0.017261 -0.35691 -0.98599 
-0.012654 -0.35086 -0.98566 
-0.011601 -0.35226 -0.98585 
-8.6848e-05 -0.35021 -0.98521 
0.0024514 -0.35073 -0.98525 
-0.020914 -0.35239 -0.98538 
0.0036601 -0.34837 -0.98449 
0.0040652 -0.3467 -0.98537 
-0.01185 -0.34627 -0.98551 
0.0055979 -0.34191 -0.98543 
-0.026388 -0.34315 -0.98577 
-0.023001 -0.34266 -0.98546 
-0.02032 -0.34424 -0.98669 
-0.0067331 -0.34273 -0.98584 
-0.0049356 -0.34141 -0.98567 
-0.0064464 -0.34048 -0.98675 
-0.012554 -0.34174 -0.98584 
-0.010626 -0.34252 -0.98623 
-0.0075758 -0.3419 -0.98592 
-0.0066805 -0.34041 -0.98611 
-0.027058 -0.34081 -0.98594 
-0.0055631 -0.3395 -0.98649 
-0.0065183 -0.33954 -0.98678 
0.006002 -0.3379 -0.9858 
-0.027189 -0.33918 -0.98598 
-0.026838 -0.33784 -0.98619 
-0.026322 -0.33639 -0.98558 
0.014432 -0.33269 -0.98686 
0.0035991 -0.33151 -0.98539 
0.012492 -0.33195 -0.98643 
0.013525 -0.33039 -0.98647 
0.020629 -0.32956 -0.98702 
0.020977 -0.33167 -0.98672 
0.022917 -0.331 -0.98635 
-0.026002 -0.33504 -0.98562 
0.018922 -0.32854 -0.9873 
0.0022763 -0.32907 -0.98489 
-0.028831 -0.33229 -0.98508 
0.021741 -0.32751 -0.9866 
0.0078492 -0.32767 -0.98503 
6.1674e-05 -0.32726 -0.9865 
0.026246 -0.32518 -0.98607 
0.035025 -0.32537 -0.98526 
0.03935 -0.32421 -0.98559 
0.0015694 -0.32679 -0.98568 
0.027989 -0.32468 -0.98612 
0.029946 -0.32484 -0.98576 
0.046443 -0.3218 -0.98776 
0.045741 -0.32255 -0.98613 
0.019607 -0.32407 -0.98577 
0.021046 -0.3243 -0.98602 
0.024224 -0.32308 -0.98553 
0.024328 -0.32204 -0.98666 
0.034222 -0.32234 -0.98502 
0.036635 -0.3219 -0.9849 
0.038773 -0.32153 -0.98868 
0.04268 -0.32133 -0.98527 
0.006838 -0.32327 -0.98536 
0.028272 -0.32105 -0.98705 
0.030108 -0.32234 -0.98497 
0.045909 -0.32163 -0.98641 
0.045003 -0.32017 -0.98812 
0.0019072 -0.32239 -0.98603 
-0.043853 -0.32226 -0.98434 
-0.047318 -0.31916 -0.98582 
-0.056039 -0.31443 -0.98501 
-0.059615 -0.31208 -0.98502 
-0.064137 -0.30829 -0.98562 
-0.06627 -0.30658 -0.98541 
-0.067901 -0.3055 -0.98495 
-0.072301 -0.30135 -0.98617 
-0.070589 -0.30342 -0.98524 
-0.074976 -0.29947 -0.98618 
-0.098854 -0.29226 -0.985 
-0.1011 -0.29274 -0.98626 
-0.094695 -0.28954 -0.98561 
-0.093054 -0.28759 -0.9858 
-0.085028 -0.28599 -0.98519 
-0.092227 -0.28498 -0.98455 
-0.087624 -0.28244 -0.98536 
-0.089637 -0.27824 -0.98595 
-0.091059 -0.27713 -0.98619 
-0.0026299 -0.36816 -0.9853 
-0.0046462 -0.36813 -0.98517 
-0.001648 -0.36718 -0.98536 
-0.0011289 -0.36519 -0.98465 
-0.0014242 -0.36196 -0.9847 
-0.005689 -0.36182 -0.98513 
-0.0089063 -0.35978 -0.98509 
-0.0051167 -0.36136 -0.98492 
-0.014177 -0.36206 -0.9851 
-0.016108 -0.35934 -0.98552 
-0.0019205 -0.35925 -0.98402 
-0.0095609 -0.35614 -0.98614 
-0.019709 -0.35507 -0.9851 
-0.011521 -0.35373 -0.98514 
-0.01007 -0.35446 -0.98532 
-0.0097156 -0.35332 -0.98563 
-0.0087005 -0.354 -0.98459 
-0.0085458 -0.35276 -0.98521 
-0.012846 -0.35347 -0.98456 
-0.0090394 -0.35212 -0.98594 
-0.016751 -0.35134 -0.98587 
-0.019328 -0.35025 -0.98443 
-0.016934 -0.35247 -0.98533 
0.00078871 -0.34855 -0.985 
-0.016469 -0.35015 -0.98672 
-0.024643 -0.34832 -0.98504 
-0.010478 -0.3469 -0.98407 
-0.010324 -0.34533 -0.9852 
0.0049055 -0.34504 -0.98451 
0.0054018 -0.3432 -0.98501 
-0.020689 -0.34562 -0.9857 
-0.022907 -0.34544 -0.98434 
-0.021229 -0.34668 -0.98486 
-0.0095834 -0.34377 -0.98565 
-0.0070695 -0.3449 -0.98479 
0.0063437 -0.34062 -0.98457 
-0.011568 -0.34224 -0.9853 
-0.0032867 -0.33971 -0.98498 
-0.0046685 -0.33874 -0.9856 
0.0070509 -0.33871 -0.9846 
-0.0034172 -0.33801 -0.98466 
0.0059679 -0.33547 -0.98563 
0.0071623 -0.33671 -0.98514 
0.011794 -0.33383 -0.98601 
0.014294 -0.33474 -0.98583 
0.012431 -0.33594 -0.98465 
0.010287 -0.33545 -0.98497 
0.0095059 -0.33372 -0.98571 
0.017983 -0.3355 -0.98515 
0.020459 -0.3343 -0.98552 
-0.026467 -0.33743 -0.985 
0.0061423 -0.33388 -0.98515 
0.0050786 -0.33324 -0.98519 
0.022641 -0.33385 -0.98538 
0.02474 -0.33202 -0.98576 
0.010788 -0.33132 -0.9858 
0.0088231 -0.33228 -0.98551 
0.026296 -0.32961 -0.98557 
0.026749 -0.33193 -0.98506 
-0.026212 -0.33389 -0.98521 
0.0087851 -0.33108 -0.98478 
0.0098974 -0.33018 -0.98456 
0.011928 -0.32996 -0.98539 
0.023367 -0.32773 -0.98614 
0.024541 -0.32799 -0.98579 
0.013454 -0.32933 -0.98595 
-0.034543 -0.32982 -0.98432 
-0.032619 -0.33123 -0.98269 
0.032703 -0.32568 -0.98481 
0.0009844 -0.32733 -0.98555 
0.028545 -0.3251 -0.98444 
0.041231 -0.32428 -0.98361 
0.045652 -0.32353 -0.98452 
0.019254 -0.32533 -0.98485 
0.020683 -0.32518 -0.98502 
0.023263 -0.32482 -0.98347 
0.010951 -0.32364 -0.9855 
0.027207 -0.3223 -0.98533 
0.0261 -0.32334 -0.98397 
0.044555 -0.32127 -0.98421 
0.046043 -0.32166 -0.98443 
0.0040375 -0.32315 -0.98467 
0.0029775 -0.32271 -0.98488 
0.0078593 -0.32348 -0.98466 
-0.052998 -0.31705 -0.98396 
-0.079432 -0.29693 -0.98465 
-0.077461 -0.29978 -0.9844 
-0.080829 -0.29376 -0.98459 
-0.096883 -0.29112 -0.98384 
-0.09567 -0.29027 -0.98463 
-0.08306 -0.2891 -0.98441 
-0.093378 -0.28771 -0.98387 
-0.09146 -0.28076 -0.98416 
-0.091316 -0.2787 -0.98479 
-0.090791 -0.27759 -0.98519 
-0.0027439 -0.36941 -0.98452 
-0.0013608 -0.36804 -0.98443 
-0.001541 -0.36932 -0.98384 
-0.0074563 -0.36781 -0.9841 
-0.0011947 -0.3661 -0.98387 
-0.012276 -0.36465 -0.98425 
-0.0071016 -0.36412 -0.98365 
-0.0052899 -0.36385 -0.98411 
-0.0053065 -0.36281 -0.98466 
-0.009704 -0.36115 -0.98424 
-0.0090954 -0.36339 -0.98331 
-0.016829 -0.36073 -0.98446 
-0.018827 -0.35767 -0.98453 
-0.020133 -0.35617 -0.98362 
-0.021238 -0.35474 -0.98343 
-0.013118 -0.35572 -0.98346 
-0.011835 -0.3551 -0.98414 
-0.010191 -0.35523 -0.98405 
-0.0018127 -0.35321 -0.98596 
-0.0024652 -0.35434 -0.9844 
-0.0010023 -0.35205 -0.98375 
-0.021825 -0.35358 -0.98401 
0.0017173 -0.3523 -0.98314 
-0.013572 -0.35115 -0.98433 
-0.014271 -0.35275 -0.98325 
-0.024121 -0.35196 -0.98332 
-0.022028 -0.34805 -0.98392 
-0.0063297 -0.34706 -0.98313 
-0.0083495 -0.34622 -0.98404 
0.0054668 -0.34397 -0.98366 
-0.027271 -0.34544 -0.98413 
-0.0049327 -0.3444 -0.98402 
-0.0030144 -0.34198 -0.98402 
0.0060131 -0.34204 -0.98397 
-0.027668 -0.3432 -0.98442 
-0.028102 -0.34359 -0.98346 
-0.023518 -0.34417 -0.98409 
-0.0015735 -0.34017 -0.98374 
-0.027787 -0.34196 -0.98433 
0.0071347 -0.33934 -0.98364 
-0.027529 -0.34086 -0.98321 
-0.027566 -0.34077 -0.98428 
-0.0014209 -0.3388 -0.98349 
0.008352 -0.33772 -0.98385 
-0.026947 -0.33968 -0.98375 
0.0087525 -0.33657 -0.98447 
0.017527 -0.33709 -0.98344 
0.014772 -0.33657 -0.98419 
-0.026665 -0.33869 -0.9841 
0.0074104 -0.33445 -0.98526 
0.0085337 -0.33524 -0.98512 
0.025066 -0.33462 -0.98407 
0.028136 -0.33286 -0.9842 
-0.02559 -0.33666 -0.9845 
-0.025087 -0.33521 -0.98455 
-0.024119 -0.33499 -0.98382 
-0.023777 -0.33572 -0.98389 
0.0065575 -0.33226 -0.98434 
0.028304 -0.33006 -0.98497 
0.029975 -0.33044 -0.98432 
0.0052189 -0.33155 -0.98381 
0.0073461 -0.33084 -0.98334 
-0.026205 -0.33391 -0.9839 
0.029199 -0.32782 -0.9844 
-0.027383 -0.33359 -0.9826 
0.0040056 -0.33008 -0.98349 
0.010455 -0.32941 -0.98328 
0.011627 -0.32921 -0.98427 
0.026546 -0.32782 -0.98531 
0.012367 -0.32893 -0.98473 
0.02609 -0.32649 -0.98544 
0.027567 -0.32638 -0.98488 
0.0016774 -0.32711 -0.98453 
0.018473 -0.32623 -0.98401 
0.019198 -0.32597 -0.9833 
0.020629 -0.32598 -0.9838 
0.033586 -0.32598 -0.98373 
0.0045885 -0.32712 -0.98304 
0.03119 -0.32552 -0.98441 
0.038345 -0.3246 -0.98318 
0.044056 -0.32414 -0.9834 
0.046307 -0.32224 -0.98492 
0.031932 -0.32321 -0.98339 
0.046754 -0.3223 -0.98368 
0.0054157 -0.32321 -0.98462 
-0.039883 -0.32647 -0.98305 
-0.047185 -0.32037 -0.9838 
-0.049443 -0.32004 -0.98229 
-0.065784 -0.30795 -0.98409 
-0.069374 -0.306 -0.98378 
-0.074508 -0.30287 -0.98377 
-0.094578 -0.28917 -0.98297 
-0.086377 -0.28596 -0.98317 
-0.089911 -0.27893 -0.98433 
-0.0024841 -0.37186 -0.98286 
-0.0044093 -0.37073 -0.98384 
-0.0021339 -0.37083 -0.98335 
-0.0011544 -0.36773 -0.98291 
-0.0011183 -0.36939 -0.98248 
-0.0020839 -0.36538 -0.98239 
-0.011197 -0.36795 -0.98251 
-0.0052857 -0.36492 -0.98323 
-0.0024367 -0.36172 -0.98295 
-0.017409 -0.36328 -0.98274 
-0.010427 -0.36248 -0.98297 
-0.010332 -0.36143 -0.98298 
-0.018952 -0.36006 -0.9833 
-0.0095706 -0.35966 -0.98372 
-0.0089469 -0.35815 -0.98436 
-0.008297 -0.35846 -0.9825 
-0.0019583 -0.35743 -0.98256 
-0.0027234 -0.35893 -0.98246 
-0.020127 -0.35805 -0.98243 
-0.01308 -0.35712 -0.98295 
-0.011514 -0.35684 -0.983 
-0.00023418 -0.35501 -0.98241 
-0.019329 -0.35411 -0.98294 
-0.020799 -0.3523 -0.98263 
-0.015004 -0.35127 -0.98281 
-0.00011084 -0.35039 -0.98325 
0.0027657 -0.35038 -0.98213 
0.0008932 -0.34869 -0.98352 
-0.022459 -0.35162 -0.98199 
0.0048103 -0.34575 -0.9828 
-0.027553 -0.3472 -0.9832 
-0.027485 -0.34962 -0.98203 
-0.0077681 -0.34737 -0.98253 
-0.0082241 -0.34671 -0.98255 
-0.02419 -0.34705 -0.98259 
-0.024141 -0.34545 -0.98311 
0.0056999 -0.34328 -0.98307 
-0.024112 -0.34471 -0.9828 
-0.019539 -0.34275 -0.9824 
-0.01872 -0.34245 -0.98384 
-0.020378 -0.34258 -0.98276 
0.0058653 -0.34136 -0.98307 
0.0062227 -0.34035 -0.98276 
0.0067999 -0.33984 -0.98268 
-0.027691 -0.34197 -0.98228 
0.00050606 -0.3395 -0.98247 
0.0082341 -0.33874 -0.98281 
-0.026002 -0.33918 -0.9832 
0.010046 -0.33763 -0.98303 
0.011006 -0.33662 -0.98391 
-0.02546 -0.33779 -0.98391 
-0.024401 -0.33881 -0.98322 
0.022399 -0.33682 -0.98246 
0.02851 -0.33437 -0.98254 
-0.023485 -0.3375 -0.98359 
0.030602 -0.33233 -0.98325 
0.032168 -0.32985 -0.98337 
-0.023016 -0.33565 -0.98293 
-0.024351 -0.3349 -0.9821 
0.005371 -0.33053 -0.9826 
0.0085725 -0.32976 -0.98217 
0.031241 -0.32767 -0.98359 
-0.029844 -0.33294 -0.98177 
0.028682 -0.32574 -0.98376 
0.0076783 -0.3278 -0.98179 
0.031429 -0.32615 -0.98369 
0.034894 -0.32575 -0.98266 
0.0025177 -0.32724 -0.9834 
0.021716 -0.32583 -0.98261 
0.027402 -0.32455 -0.98246 
0.03009 -0.32405 -0.98264 
0.03495 -0.32274 -0.98276 
0.04677 -0.32292 -0.98352 
-0.037857 -0.32859 -0.98255 
0.037561 -0.32185 -0.98292 
0.043637 -0.32127 -0.98169 
0.046295 -0.32161 -0.98282 
0.0059639 -0.32273 -0.98377 
0.0043213 -0.32209 -0.98377 
-0.041962 -0.32484 -0.98235 
-0.051586 -0.31949 -0.98131 
-0.05587 -0.31666 -0.98132 
-0.058705 -0.31429 -0.98242 
-0.064967 -0.31026 -0.98276 
-0.072103 -0.30541 -0.98297 
-0.082651 -0.29291 -0.98276 
-0.10092 -0.29279 -0.98209 
-0.085185 -0.2879 -0.9833 
-0.092521 -0.28571 -0.98195 
-0.088196 -0.2847 -0.98185 
-0.089672 -0.28092 -0.98301 
-0.090976 -0.27962 -0.983 
-0.0026743 -0.37266 -0.98251 
-0.0051181 -0.37285 -0.98234 
-0.0084377 -0.37024 -0.98252 
-0.0015274 -0.3709 -0.98219 
-0.0066626 -0.36645 -0.98232 
-0.0069904 -0.36811 -0.98143 
-0.005643 -0.36685 -0.98189 
-0.015707 -0.36602 -0.98191 
-0.0090379 -0.36549 -0.98206 
-0.010645 -0.36382 -0.98208 
-0.0038178 -0.3627 -0.98106 
-0.011037 -0.36296 -0.9815 
-0.0036581 -0.36097 -0.98139 
-0.020381 -0.36144 -0.98148 
-0.0094004 -0.36003 -0.98245 
-0.0035007 -0.35951 -0.98119 
-0.020444 -0.35939 -0.98224 
-0.012105 -0.35849 -0.98213 
-0.013793 -0.35823 -0.98222 
-0.01292 -0.35943 -0.98163 
-0.011078 -0.35745 -0.9817 
-0.01529 -0.35529 -0.9815 
-0.0039431 -0.356 -0.9835 
-0.0028446 -0.35418 -0.98187 
-0.0013373 -0.35208 -0.98178 
0.0010048 -0.3532 -0.98166 
-0.023129 -0.35349 -0.98259 
-0.016533 -0.35133 -0.98144 
0.0030098 -0.34914 -0.98096 
0.00409 -0.34693 -0.98189 
-0.026441 -0.35226 -0.98173 
-0.024032 -0.34948 -0.98179 
-0.007027 -0.34809 -0.98139 
0.0049232 -0.34394 -0.98206 
-0.029023 -0.34692 -0.98168 
-0.028785 -0.34577 -0.98208 
-0.024613 -0.34559 -0.98238 
-0.025362 -0.34684 -0.98145 
0.0053478 -0.34255 -0.98238 
-0.028482 -0.34426 -0.98226 
-0.00088637 -0.34209 -0.98277 
0.00028356 -0.34434 -0.98185 
0.0010091 -0.34096 -0.98241 
0.0025551 -0.34176 -0.98213 
-0.020797 -0.34349 -0.98165 
-0.017727 -0.34226 -0.98288 
0.0051441 -0.3403 -0.98218 
0.0055195 -0.34083 -0.98268 
0.0044016 -0.3413 -0.98215 
0.00259 -0.33982 -0.98216 
0.0036859 -0.34007 -0.98208 
0.0037109 -0.33965 -0.98157 
0.0073528 -0.33948 -0.98152 
-0.026608 -0.34059 -0.98238 
0.01313 -0.33818 -0.982 
0.01929 -0.33838 -0.9811 
-0.025385 -0.33971 -0.98252 
-0.025167 -0.34065 -0.98165 
-0.023253 -0.34079 -0.98238 
0.032376 -0.33333 -0.98153 
0.032701 -0.3316 -0.9826 
0.034653 -0.33084 -0.98176 
0.034443 -0.32873 -0.98226 
0.033767 -0.32714 -0.98255 
0.032713 -0.32676 -0.98314 
0.0033311 -0.32798 -0.98181 
0.029607 -0.32564 -0.98344 
0.019989 -0.32567 -0.98253 
0.037798 -0.32461 -0.98119 
0.036354 -0.32432 -0.98046 
0.040716 -0.32458 -0.98103 
0.046511 -0.32338 -0.98235 
-0.036343 -0.33017 -0.98017 
0.0031176 -0.32716 -0.98225 
0.017127 -0.32619 -0.98359 
0.017582 -0.32518 -0.98367 
0.018193 -0.32597 -0.98333 
0.019139 -0.3247 -0.98352 
0.020367 -0.32463 -0.98263 
0.046859 -0.32238 -0.98141 
0.020624 -0.32312 -0.98458 
0.021628 -0.32446 -0.98141 
0.036661 -0.32217 -0.98137 
0.023631 -0.32239 -0.98225 
-0.044123 -0.32412 -0.98121 
-0.047459 -0.32214 -0.98121 
-0.062797 -0.31308 -0.98137 
-0.068005 -0.30901 -0.98198 
-0.070924 -0.30772 -0.98131 
-0.07423 -0.30507 -0.98166 
-0.07661 -0.30299 -0.98207 
-0.079121 -0.3008 -0.98157 
-0.080934 -0.29801 -0.98156 
-0.082425 -0.29521 -0.98118 
-0.098491 -0.29211 -0.98161 
-0.085102 -0.29071 -0.98178 
-0.091635 -0.28176 -0.98193 
-0.091018 -0.28031 -0.98241 
-0.090668 -0.27913 -0.98352 
-0.0019312 -0.37489 -0.9805 
-0.0038781 -0.3748 -0.98128 
-0.0024607 -0.37362 -0.98164 
-0.0015196 -0.37318 -0.98078 
-0.0068729 -0.37434 -0.98076 
-0.001265 -0.37199 -0.98015 
-0.0014917 -0.37017 -0.98077 
-0.0056142 -0.36891 -0.98097 
-0.006306 -0.36933 -0.98098 
-0.0055641 -0.37019 -0.98055 
-0.0022043 -0.36805 -0.98075 
-0.015223 -0.36957 -0.97951 
-0.010057 -0.36673 -0.9808 
-0.0090123 -0.36861 -0.98014 
-0.011069 -0.36477 -0.98123 
-0.018104 -0.36689 -0.98003 
-0.013911 -0.36134 -0.97987 
-0.013576 -0.36034 -0.98112 
-0.014694 -0.36038 -0.98083 
-0.010112 -0.36113 -0.98105 
-0.0090875 -0.35935 -0.98048 
-0.013137 -0.36035 -0.98053 
-0.011663 -0.35822 -0.98078 
-0.015179 -0.35867 -0.98087 
-0.022034 -0.35963 -0.98069 
-0.021656 -0.35812 -0.98078 
-0.0024163 -0.35262 -0.98092 
-0.024189 -0.35421 -0.98102 
-0.025154 -0.35426 -0.98145 
-0.023971 -0.3538 -0.98149 
0.0019045 -0.35138 -0.98063 
-0.022608 -0.35323 -0.98179 
-0.023567 -0.35332 -0.98127 
-0.023766 -0.35175 -0.98107 
0.0033166 -0.34733 -0.98065 
-0.0079537 -0.34761 -0.98094 
0.0043747 -0.34501 -0.98156 
-0.029403 -0.348 -0.98067 
-0.026152 -0.3488 -0.98007 
0.0025875 -0.3438 -0.98139 
0.0025067 -0.34513 -0.98071 
0.0036932 -0.34365 -0.98143 
0.0042099 -0.34241 -0.98181 
-0.029538 -0.34643 -0.97983 
-0.028961 -0.34516 -0.98049 
-0.019926 -0.34298 -0.98134 
-0.018316 -0.34231 -0.98144 
-0.027667 -0.34293 -0.98107 
0.0059058 -0.33979 -0.98143 
-0.026569 -0.34163 -0.98136 
-0.024857 -0.34188 -0.98066 
0.0040194 -0.33987 -0.98064 
0.009505 -0.33894 -0.9817 
0.027058 -0.33721 -0.97971 
0.031141 -0.33532 -0.97989 
-0.022581 -0.33736 -0.98224 
-0.02287 -0.33864 -0.98193 
-0.023907 -0.33807 -0.98115 
0.034699 -0.33302 -0.98034 
-0.023392 -0.33651 -0.98134 
-0.022166 -0.33613 -0.98283 
-0.023482 -0.33564 -0.98081 
-0.024063 -0.33508 -0.97994 
0.036092 -0.32873 -0.98142 
-0.025395 -0.33455 -0.98019 
0.0068297 -0.33009 -0.98194 
0.0054608 -0.32947 -0.98122 
0.010071 -0.32904 -0.98099 
0.034804 -0.32639 -0.982 
0.035749 -0.32625 -0.98117 
0.0093471 -0.32798 -0.98015 
0.021312 -0.32562 -0.98173 
0.022472 -0.32581 -0.98136 
0.0043121 -0.32693 -0.981 
0.023729 -0.3257 -0.98054 
0.025546 -0.32509 -0.98068 
0.043641 -0.32427 -0.98085 
0.021237 -0.32549 -0.98166 
0.032732 -0.324 -0.981 
0.039071 -0.32168 -0.9798 
0.045937 -0.32142 -0.98079 
0.046834 -0.32216 -0.9804 
0.023372 -0.32387 -0.98049 
-0.041586 -0.32672 -0.97972 
-0.065526 -0.31241 -0.97968 
-0.095288 -0.28975 -0.98065 
-0.093551 -0.28787 -0.9809 
-0.090516 -0.28109 -0.98179 
-0.089952 -0.28409 -0.97996 
-0.091903 -0.28317 -0.97939 
-0.090831 -0.28156 -0.9812 
-0.0035752 -0.37691 -0.97973 
-0.0069452 -0.37638 -0.97956 
-0.0021367 -0.37635 -0.97943 
-0.011418 -0.3719 -0.97952 
-0.0073067 -0.37031 -0.97993 
-0.0049412 -0.37129 -0.9795 
-0.0052986 -0.36979 -0.97987 
-0.0056961 -0.36857 -0.98009 
-0.0058319 -0.36732 -0.98083 
-0.0043001 -0.36476 -0.97997 
-0.011384 -0.36567 -0.98018 
-0.011576 -0.36361 -0.97935 
-0.021188 -0.36396 -0.97963 
-0.010771 -0.36199 -0.97973 
-0.0052994 -0.36223 -0.97948 
-0.0046793 -0.36063 -0.97969 
-0.012611 -0.35942 -0.98022 
-0.0030125 -0.35807 -0.97937 
-0.0229 -0.35759 -0.98001 
-0.0007835 -0.35503 -0.97976 
-0.0033931 -0.35405 -0.98042 
-0.0060919 -0.35782 -0.98081 
-0.0048704 -0.35571 -0.97954 
-0.016976 -0.35744 -0.97923 
-0.017664 -0.35364 -0.97953 
0.00049686 -0.35266 -0.97956 
-0.02482 -0.35529 -0.9808 
-0.027397 -0.35515 -0.97959 
-0.029265 -0.34999 -0.9801 
-0.029283 -0.35274 -0.97928 
-0.02623 -0.35229 -0.97878 
0.0034046 -0.34565 -0.9808 
0.0013287 -0.34639 -0.98008 
-0.027899 -0.344 -0.97986 
-0.0022514 -0.34253 -0.97881 
-0.0032218 -0.34356 -0.98123 
-0.0029664 -0.34126 -0.98072 
-0.024507 -0.3434 -0.97949 
-0.022634 -0.34381 -0.98052 
0.012732 -0.34045 -0.97879 
0.0087028 -0.34049 -0.97936 
-0.026644 -0.34268 -0.98037 
-0.0022198 -0.33945 -0.98162 
-0.0013172 -0.34026 -0.98005 
0.0012021 -0.3395 -0.98088 
0.0019963 -0.34026 -0.97946 
-0.023948 -0.33984 -0.9798 
-0.024332 -0.3383 -0.98016 
-0.023972 -0.33765 -0.97984 
0.036364 -0.33095 -0.98061 
0.036934 -0.32971 -0.98083 
0.037727 -0.32797 -0.98086 
0.038641 -0.32998 -0.98016 
-0.026529 -0.33491 -0.97798 
0.039385 -0.32751 -0.98034 
-0.029469 -0.3336 -0.9793 
0.007219 -0.32929 -0.98055 
0.036902 -0.32613 -0.98046 
0.0046229 -0.32843 -0.98045 
0.038487 -0.32562 -0.97993 
-0.031913 -0.33267 -0.97969 
0.022354 -0.32545 -0.98035 
-0.034537 -0.33196 -0.97884 
0.0044589 -0.32754 -0.97928 
0.0065269 -0.32684 -0.97864 
0.024553 -0.3257 -0.97932 
0.027283 -0.32507 -0.97937 
0.028905 -0.32456 -0.9817 
0.039177 -0.32477 -0.98012 
0.041405 -0.32476 -0.98006 
0.045336 -0.32396 -0.97996 
0.046718 -0.32312 -0.98036 
0.031685 -0.32418 -0.98001 
-0.050973 -0.32196 -0.97942 
-0.053097 -0.32016 -0.97963 
-0.0612 -0.31554 -0.97966 
-0.073002 -0.30729 -0.97994 
-0.078339 -0.30322 -0.9789 
-0.086051 -0.29305 -0.97821 
-0.08805 -0.28859 -0.97949 
-0.092817 -0.28642 -0.97924 
-0.092057 -0.2841 -0.97833 
-0.0053651 -0.37826 -0.97894 
-0.0012027 -0.37549 -0.97855 
-0.0010915 -0.37393 -0.9788 
-0.0053136 -0.37271 -0.97929 
-0.00695 -0.37218 -0.97915 
-0.0097111 -0.37145 -0.97817 
-0.0024175 -0.36967 -0.9791 
-0.0016523 -0.37169 -0.97837 
-0.010802 -0.36829 -0.97936 
-0.0042691 -0.36822 -0.97795 
-0.0070819 -0.36711 -0.9793 
-0.0057498 -0.36557 -0.97831 
-0.01211 -0.36744 -0.97883 
-0.012161 -0.3652 -0.97874 
-0.0061204 -0.36218 -0.97848 
-0.015774 -0.36136 -0.97933 
-0.02396 -0.3607 -0.97847 
-0.013398 -0.35962 -0.97899 
-0.024098 -0.3583 -0.97961 
-0.0021298 -0.35584 -0.97793 
-0.025415 -0.35674 -0.97973 
-0.0039623 -0.35383 -0.97972 
0.0013359 -0.3503 -0.97934 
0.0017273 -0.34823 -0.97968 
0.00055662 -0.34863 -0.97906 
-0.030315 -0.34932 -0.97835 
-0.030265 -0.3513 -0.97839 
-0.00021117 -0.34738 -0.97988 
0.0023186 -0.34688 -0.98005 
-0.02992 -0.34806 -0.97912 
-0.0023305 -0.34481 -0.97913 
-0.002682 -0.34663 -0.97919 
-0.0031755 -0.34543 -0.98049 
-0.028422 -0.34508 -0.97883 
-0.026125 -0.34324 -0.97958 
-0.0016647 -0.34123 -0.97899 
0.0048678 -0.34047 -0.97948 
0.016579 -0.34047 -0.97815 
0.024094 -0.33955 -0.9777 
0.02068 -0.34035 -0.97736 
-0.023107 -0.34118 -0.97815 
-0.02151 -0.34149 -0.97931 
0.037446 -0.33235 -0.97931 
-0.023032 -0.33683 -0.9796 
-0.022071 -0.33589 -0.9791 
0.041126 -0.32821 -0.97978 
0.040958 -0.33021 -0.97934 
0.0088304 -0.32835 -0.97923 
0.041574 -0.3265 -0.97964 
0.0064255 -0.32833 -0.97915 
0.039702 -0.32586 -0.98002 
0.023216 -0.32565 -0.97974 
0.037056 -0.32493 -0.97909 
0.035154 -0.32454 -0.98028 
0.041912 -0.3252 -0.97957 
0.029429 -0.32469 -0.97853 
0.034253 -0.32411 -0.97976 
0.037538 -0.32412 -0.97911 
0.043459 -0.32453 -0.97946 
0.023563 -0.325 -0.97926 
-0.038222 -0.32995 -0.97787 
0.03787 -0.322 -0.97785 
0.043681 -0.3213 -0.97775 
0.045894 -0.32143 -0.97897 
-0.046129 -0.32523 -0.97834 
-0.048889 -0.32354 -0.97868 
-0.056038 -0.31867 -0.97875 
-0.068663 -0.31087 -0.97877 
-0.071669 -0.30951 -0.97784 
-0.075254 -0.30646 -0.978 
-0.080745 -0.30088 -0.97838 
-0.082965 -0.29793 -0.97827 
-0.098695 -0.29237 -0.97936 
-0.096439 -0.29092 -0.97818 
-0.094153 -0.28869 -0.97874 
-0.09133 -0.28289 -0.97958 
-0.0031608 -0.37946 -0.9778 
-0.0043498 -0.3804 -0.97761 
-0.0028311 -0.37826 -0.97855 
-0.0077706 -0.3784 -0.97756 
-0.0012306 -0.37659 -0.97771 
-0.011963 -0.37477 -0.97734 
-0.0072102 -0.37472 -0.97771 
-0.0048216 -0.37502 -0.97841 
-0.00456 -0.37409 -0.97896 
-0.0062503 -0.36984 -0.97748 
-0.0047745 -0.37179 -0.97857 
-0.0125 -0.37016 -0.97725 
-0.019703 -0.36884 -0.97762 
-0.012931 -0.36869 -0.97775 
-0.013029 -0.3671 -0.97743 
-0.0082941 -0.36729 -0.97734 
-0.0081026 -0.36492 -0.97936 
-0.022682 -0.36583 -0.97716 
-0.007318 -0.36446 -0.97678 
-0.012099 -0.36181 -0.97757 
-0.0049353 -0.35972 -0.97741 
-0.016429 -0.36191 -0.97828 
-0.017768 -0.36075 -0.97734 
-0.014841 -0.36146 -0.97891 
-0.026424 -0.35878 -0.9777 
-0.0062826 -0.35713 -0.97819 
-0.0054439 -0.35578 -0.97869 
-0.023083 -0.35721 -0.97851 
-0.021581 -0.35884 -0.97858 
-0.022306 -0.35734 -0.97981 
-0.001374 -0.35381 -0.97783 
-0.019795 -0.35366 -0.97723 
-0.018643 -0.35723 -0.97722 
-0.029355 -0.35523 -0.97767 
3.6791e-05 -0.35138 -0.97848 
-0.0002959 -0.34966 -0.97851 
-0.030096 -0.35335 -0.97724 
-0.0015873 -0.3492 -0.97873 
-0.0016782 -0.34792 -0.97786 
-0.0015189 -0.34606 -0.97776 
-0.028995 -0.3466 -0.97732 
-0.028477 -0.34581 -0.97786 
-0.026945 -0.34462 -0.97841 
-0.02496 -0.34471 -0.97842 
0.011178 -0.34164 -0.97654 
0.00062668 -0.34153 -0.97793 
-0.021837 -0.34228 -0.97798 
-0.024091 -0.33975 -0.97791 
0.029982 -0.33784 -0.97757 
0.032857 -0.33702 -0.97699 
0.03593 -0.33471 -0.97786 
-0.022484 -0.33736 -0.97878 
-0.022925 -0.33813 -0.9779 
-0.024231 -0.33875 -0.97883 
0.040274 -0.33333 -0.97774 
-0.023468 -0.33553 -0.97818 
0.042876 -0.32854 -0.97889 
-0.031849 -0.33416 -0.9767 
0.043376 -0.32531 -0.97888 
0.044692 -0.32832 -0.97782 
0.0056268 -0.32745 -0.97788 
0.025987 -0.32563 -0.97765 
0.02502 -0.32553 -0.9778 
0.02463 -0.32485 -0.97814 
0.031549 -0.32417 -0.97802 
0.033745 -0.32377 -0.97865 
0.045363 -0.32422 -0.97821 
0.046616 -0.32316 -0.97823 
0.0046413 -0.32605 -0.97716 
0.0468 -0.32218 -0.9781 
-0.051483 -0.32301 -0.97766 
-0.060768 -0.31838 -0.9761 
-0.065398 -0.31484 -0.97753 
-0.062749 -0.31638 -0.97761 
-0.091227 -0.28581 -0.97675 
-0.091447 -0.28401 -0.97789 
-0.091257 -0.28354 -0.9787 
-0.0057678 -0.38084 -0.97725 
-0.002643 -0.38058 -0.97653 
-0.0015872 -0.37917 -0.9763 
-0.0011747 -0.37777 -0.97666 
-0.0054664 -0.37659 -0.97705 
-0.0010863 -0.37447 -0.97731 
-0.010374 -0.37438 -0.97544 
-0.0016816 -0.37379 -0.97611 
-0.015686 -0.37284 -0.97709 
-0.0038806 -0.37001 -0.97625 
-0.014013 -0.36957 -0.97681 
-0.013613 -0.36825 -0.9769 
-0.0058131 -0.36834 -0.97649 
-0.0065245 -0.36732 -0.97651 
-0.013267 -0.36571 -0.97622 
-0.0096489 -0.36454 -0.97775 
-0.010486 -0.36528 -0.97612 
-0.013212 -0.36373 -0.97693 
-0.0069487 -0.36235 -0.97728 
-0.0080656 -0.36246 -0.97547 
-0.016827 -0.36174 -0.97742 
-0.01595 -0.36048 -0.9773 
-0.0062497 -0.36052 -0.9762 
-0.0041416 -0.35811 -0.97683 
-0.0035826 -0.35648 -0.9765 
-0.029323 -0.35753 -0.97637 
-0.0010722 -0.35161 -0.97769 
-0.0024402 -0.35293 -0.97687 
-0.0020378 -0.35113 -0.97713 
-0.030683 -0.35065 -0.97645 
-0.030133 -0.34874 -0.97656 
-0.0008206 -0.34677 -0.97669 
-0.029175 -0.34749 -0.97635 
-0.0016924 -0.34395 -0.97742 
-0.026029 -0.34548 -0.97747 
-0.024443 -0.34655 -0.97692 
-0.0012166 -0.34221 -0.97773 
0.0071905 -0.34256 -0.97565 
0.014775 -0.34147 -0.97655 
0.0034721 -0.34211 -0.97702 
-0.023886 -0.34071 -0.97615 
-0.023506 -0.33917 -0.97647 
-0.021006 -0.33779 -0.97828 
-0.021708 -0.33838 -0.97663 
0.04355 -0.3312 -0.97757 
-0.020277 -0.33634 -0.97842 
-0.022897 -0.3364 -0.97685 
-0.034474 -0.33357 -0.97612 
0.044816 -0.3251 -0.97799 
0.045997 -0.32611 -0.9771 
0.0044466 -0.32686 -0.97754 
0.027408 -0.32545 -0.97685 
0.028704 -0.32523 -0.97685 
-0.0365 -0.33198 -0.97667 
0.033292 -0.32294 -0.97672 
0.041509 -0.32143 -0.97472 
0.045709 -0.32161 -0.97705 
-0.041108 -0.32882 -0.97657 
-0.044203 -0.32797 -0.97562 
-0.049512 -0.32466 -0.97666 
-0.05432 -0.32114 -0.97705 
-0.058517 -0.32006 -0.97593 
-0.068665 -0.31273 -0.97638 
-0.078607 -0.30453 -0.97616 
-0.09917 -0.29317 -0.97744 
-0.089316 -0.28989 -0.97684 
-0.094164 -0.28905 -0.97614 
-0.092708 -0.28634 -0.97728 
-0.0052343 -0.38306 -0.97565 
-0.0071249 -0.38142 -0.97629 
-0.0035226 -0.38215 -0.97605 
-0.0051465 -0.37902 -0.97535 
-0.0050832 -0.37761 -0.97622 
-0.0066038 -0.37768 -0.97571 
-0.0045045 -0.37881 -0.97515 
-0.001111 -0.3758 -0.97584 
-0.013097 -0.37697 -0.9752 
-0.0049591 -0.37355 -0.97571 
-0.004189 -0.37351 -0.97778 
-0.0039032 -0.37505 -0.97691 
-0.0038404 -0.37144 -0.9744 
-0.013768 -0.37214 -0.97518 
-0.015712 -0.37034 -0.97588 
-0.020001 -0.37204 -0.97527 
-0.005051 -0.3693 -0.97478 
-0.014598 -0.36895 -0.9762 
-0.0074295 -0.36591 -0.97531 
-0.014421 -0.36371 -0.97586 
-0.025192 -0.36508 -0.97505 
-0.026389 -0.36166 -0.97584 
-0.014015 -0.36127 -0.9758 
-0.015387 -0.36241 -0.97514 
-0.017505 -0.36126 -0.97671 
-0.012132 -0.3606 -0.97676 
-0.011734 -0.35968 -0.97592 
-0.019433 -0.35988 -0.97586 
-0.021754 -0.35565 -0.97497 
-0.0033129 -0.35386 -0.97629 
-0.030131 -0.35497 -0.97625 
-0.00041141 -0.34875 -0.97614 
-0.00041079 -0.35044 -0.97574 
-0.0018169 -0.35008 -0.97713 
-0.0012142 -0.34542 -0.97584 
-0.026674 -0.3467 -0.97633 
-0.0013995 -0.34402 -0.9759 
-0.00064057 -0.3427 -0.97684 
-0.00057991 -0.34323 -0.97554 
-0.02363 -0.34635 -0.9767 
-0.023779 -0.34445 -0.97573 
-0.022663 -0.3448 -0.97753 
0.001016 -0.34265 -0.97631 
0.018414 -0.34212 -0.97429 
0.022725 -0.34133 -0.97455 
-0.022692 -0.34253 -0.97655 
0.025994 -0.34115 -0.97409 
0.035266 -0.33713 -0.97587 
0.038452 -0.33708 -0.97536 
0.043918 -0.33402 -0.97613 
0.046486 -0.33092 -0.9769 
-0.019223 -0.33745 -0.97667 
0.048107 -0.32804 -0.97672 
0.049289 -0.33043 -0.97604 
0.048492 -0.32584 -0.97591 
0.025625 -0.325 -0.97643 
0.026299 -0.32524 -0.97618 
0.046429 -0.32412 -0.97676 
-0.03899 -0.33046 -0.97502 
0.0043696 -0.32642 -0.97652 
0.0043778 -0.3255 -0.97519 
0.046684 -0.32288 -0.97669 
0.0036181 -0.32603 -0.97665 
0.0024827 -0.32484 -0.97463 
0.0030145 -0.32548 -0.97526 
0.046255 -0.32207 -0.97607 
-0.06508 -0.31666 -0.97557 
-0.072774 -0.31035 -0.975 
-0.082677 -0.3007 -0.9757 
-0.085926 -0.29609 -0.97567 
-0.09899 -0.2943 -0.9748 
-0.10128 -0.29422 -0.97724 
-0.08811 -0.29353 -0.97468 
-0.096294 -0.29188 -0.9754 
-0.0912 -0.28781 -0.97534 
-0.0019036 -0.3821 -0.97496 
-0.0014862 -0.38039 -0.97455 
-0.0048618 -0.37994 -0.97476 
-0.0062227 -0.3795 -0.97448 
-0.010108 -0.3804 -0.97488 
-0.0010878 -0.37738 -0.97479 
-0.0039947 -0.37684 -0.97555 
-0.016859 -0.37111 -0.97437 
-0.0066238 -0.3715 -0.9746 
-0.0071517 -0.36905 -0.97542 
-0.024045 -0.36816 -0.97448 
-0.013447 -0.36784 -0.97551 
-0.015117 -0.36926 -0.97523 
-0.0091793 -0.36784 -0.9748 
-0.013329 -0.36636 -0.97498 
-0.0066773 -0.36765 -0.97485 
-0.014672 -0.36474 -0.97451 
-0.0083092 -0.36459 -0.97481 
-0.0088131 -0.36367 -0.97396 
-0.0080834 -0.36085 -0.97433 
-0.019647 -0.36128 -0.97456 
-0.020589 -0.36118 -0.97451 
-0.0066812 -0.35936 -0.97484 
-0.0054938 -0.3575 -0.97536 
-0.0063424 -0.35602 -0.97507 
-0.0046015 -0.35512 -0.97556 
-0.028573 -0.35646 -0.97453 
-0.027138 -0.35846 -0.97436 
-0.026703 -0.35583 -0.97665 
-0.025287 -0.3585 -0.97562 
-0.030643 -0.35631 -0.9755 
-0.030789 -0.35361 -0.97499 
-0.00014804 -0.35182 -0.97499 
-0.0016093 -0.35221 -0.97566 
0.00048271 -0.349 -0.97452 
-0.030918 -0.35184 -0.97484 
-0.030526 -0.35045 -0.97525 
-0.00032236 -0.34738 -0.97534 
-0.029788 -0.34963 -0.97453 
-0.028961 -0.3488 -0.97478 
-0.027711 -0.34789 -0.97532 
-0.025407 -0.34839 -0.97523 
-0.023858 -0.34801 -0.97536 
-0.024423 -0.3461 -0.97542 
0.0032664 -0.34333 -0.97449 
0.013515 -0.34209 -0.97436 
-0.023422 -0.34191 -0.9753 
0.041643 -0.33625 -0.97504 
-0.022524 -0.33946 -0.97477 
0.047464 -0.33374 -0.97539 
-0.023226 -0.33826 -0.97399 
-0.028322 -0.33667 -0.97355 
0.050846 -0.32774 -0.97547 
0.051659 -0.33053 -0.97493 
0.050036 -0.32605 -0.97527 
0.047516 -0.3249 -0.97582 
-0.036142 -0.33342 -0.97407 
0.038246 -0.32523 -0.97489 
0.035849 -0.32601 -0.97478 
0.03718 -0.32637 -0.97379 
0.049498 -0.32476 -0.97438 
0.047252 -0.32389 -0.97533 
0.025252 -0.32488 -0.97716 
0.038308 -0.32463 -0.97446 
0.036857 -0.32496 -0.97466 
0.038766 -0.32457 -0.97444 
0.039256 -0.32484 -0.97435 
0.044812 -0.32144 -0.97422 
-0.048073 -0.32724 -0.97414 
-0.053051 -0.32312 -0.97533 
-0.06709 -0.31631 -0.97426 
-0.070846 -0.31325 -0.97366 
-0.07586 -0.30788 -0.97458 
-0.085446 -0.29885 -0.97353 
-0.092698 -0.28671 -0.97572 
-0.0057417 -0.38531 -0.97407 
-0.0077915 -0.38343 -0.97431 
-0.0036629 -0.38444 -0.97465 
-0.0022654 -0.3839 -0.97433 
-0.0014949 -0.38289 -0.9735 
-0.0014278 -0.37889 -0.97367 
-0.013331 -0.38033 -0.97258 
-0.008354 -0.37835 -0.974 
-0.0045389 -0.37697 -0.9745 
-0.011021 -0.37792 -0.97285 
-0.0029223 -0.37489 -0.97329 
-0.015174 -0.37799 -0.97294 
-0.0062832 -0.37423 -0.97301 
-0.019327 -0.37537 -0.97303 
-0.0137 -0.37495 -0.97334 
-0.0083382 -0.36952 -0.97381 
-0.022936 -0.37249 -0.97246 
-0.0070522 -0.36732 -0.97295 
-0.011018 -0.36559 -0.97414 
-0.013844 -0.3664 -0.97348 
-0.016569 -0.36312 -0.97377 
-0.027519 -0.36419 -0.97364 
-0.016026 -0.36157 -0.97389 
