# .PCD v0.7 - Point Cloud Data file format
VERSION 0.7
FIELDS x y z
SIZE 4 4 4
TYPE F F F
COUNT 1 1 1
WIDTH 1621
HEIGHT 1
VIEWPOINT 0 0 0 1 0 0 0
POINTS 1621
DATA ascii
-0.003111 -0.230883 -0.3421
0.001532 -0.230436 -0.342097
0.006179 -0.230439 -0.342082
0.01087 -0.230958 -0.341989
0.015826 -0.231946 -0.341523
0.04915 -0.230762 -0.343308
0.050846 -0.227385 -0.340733
-0.039593 -0.227809 -0.345441
-0.042068 -0.227567 -0.347078
-0.038958 -0.229307 -0.348079
-0.03391 -0.229987 -0.346671
-0.036838 -0.228019 -0.344228
-0.02969 -0.230931 -0.347633
-0.025918 -0.231359 -0.347022
-0.021531 -0.231792 -0.346893
-0.017048 -0.231938 -0.346773
-0.012459 -0.231787 -0.346732
-0.007834 -0.231358 -0.346712
-0.003194 -0.230814 -0.346704
0.001445 -0.230404 -0.346701
0.006086 -0.230338 -0.346698
0.010734 -0.23069 -0.346678
0.015395 -0.2314 -0.346569
0.019865 -0.232329 -0.346354
0.049323 -0.230765 -0.347054
0.052806 -0.227997 -0.343724
0.052384 -0.229769 -0.346249
0.055091 -0.228621 -0.348012
0.055132 -0.227955 -0.345822
-0.050672 -0.226606 -0.35067
-0.051752 -0.227986 -0.352877
-0.048394 -0.228851 -0.353029
-0.043156 -0.229248 -0.351544
-0.046345 -0.226831 -0.349053
-0.038967 -0.230144 -0.352424
-0.035133 -0.230447 -0.351633
-0.030625 -0.230812 -0.351476
-0.026173 -0.231113 -0.351492
-0.021698 -0.231307 -0.351391
-0.017137 -0.231384 -0.351352
-0.012532 -0.23126 -0.351351
-0.007883 -0.230966 -0.351356
-0.003224 -0.230614 -0.351344
0.001414 -0.230336 -0.351326
0.006032 -0.230251 -0.351319
0.010662 -0.230405 -0.351326
0.015319 -0.230795 -0.351311
0.019945 -0.231413 -0.35123
0.024538 -0.232218 -0.351012
0.029073 -0.232695 -0.351946
0.037485 -0.232064 -0.352483
0.041367 -0.230299 -0.35209
0.045204 -0.229667 -0.350295
0.048255 -0.22948 -0.349553
0.049796 -0.227666 -0.350891
0.051883 -0.229014 -0.349405
0.056326 -0.227247 -0.349385
0.05457 -0.228008 -0.350087
-0.05385 -0.227418 -0.354211
-0.055004 -0.227586 -0.356957
-0.051848 -0.228988 -0.356312
-0.048158 -0.229906 -0.357139
-0.04441 -0.22997 -0.356354
-0.039897 -0.230175 -0.356172
-0.035444 -0.230407 -0.356153
-0.030938 -0.230534 -0.356038
-0.026345 -0.230658 -0.356009
-0.021753 -0.230752 -0.355977
-0.017253 -0.230799 -0.35587
-0.01277 -0.230685 -0.355918
-0.008105 -0.230446 -0.356065
-0.003332 -0.230284 -0.356046
0.001377 -0.230186 -0.355967
0.005914 -0.230147 -0.355848
0.010403 -0.230131 -0.355884
0.015083 -0.230181 -0.355981
0.019855 -0.230578 -0.355941
0.024537 -0.231275 -0.355882
0.029112 -0.231864 -0.355748
0.033417 -0.232138 -0.354552
0.037573 -0.230051 -0.35605
0.043681 -0.227066 -0.35274
0.040299 -0.228118 -0.354982
0.05262 -0.226576 -0.351101
-0.052927 -0.229455 -0.360904
-0.056544 -0.227979 -0.36157
-0.048984 -0.230094 -0.360827
-0.044694 -0.230198 -0.360813
-0.040216 -0.230189 -0.360694
-0.035625 -0.230245 -0.360662
-0.031021 -0.230284 -0.360645
-0.026399 -0.230339 -0.360628
-0.021758 -0.230412 -0.360606
-0.017138 -0.230409 -0.360467
-0.013404 -0.230335 -0.359763
-0.009041 -0.229857 -0.360885
-0.003873 -0.229696 -0.361042
0.001222 -0.229861 -0.360727
0.005926 -0.22989 -0.36042
0.009661 -0.229918 -0.359673
0.014026 -0.229441 -0.360762
0.019341 -0.229567 -0.360603
0.024282 -0.230779 -0.360483
0.028923 -0.231473 -0.360462
0.033514 -0.230798 -0.359772
0.038293 -0.227076 -0.357702
0.036382 -0.228375 -0.360045
-0.053538 -0.229804 -0.365661
-0.057129 -0.228685 -0.366777
-0.04932 -0.230261 -0.365357
-0.044866 -0.230245 -0.365309
-0.040298 -0.230182 -0.36529
-0.035682 -0.230181 -0.365274
-0.03105 -0.230191 -0.365269
-0.026413 -0.230222 -0.365265
-0.021762 -0.230312 -0.365257
-0.017018 -0.230307 -0.3652
-0.011664 -0.229846 -0.364828
-0.006131 -0.229079 -0.363756
-0.008391 -0.229172 -0.364576
-0.003252 -0.229058 -0.364484
-0.002717 -0.228962 -0.366445
0.000576 -0.229441 -0.365915
0.006 -0.229573 -0.365244
0.01077 -0.22941 -0.364362
0.017277 -0.227792 -0.363655
0.014366 -0.228532 -0.364824
0.02037 -0.228325 -0.363499
0.021959 -0.228123 -0.366228
0.023501 -0.230058 -0.364331
0.028213 -0.231653 -0.365303
0.032334 -0.231259 -0.364863
0.034797 -0.228108 -0.364936
-0.054476 -0.230098 -0.370722
-0.058096 -0.228916 -0.370472
-0.049546 -0.230419 -0.370041
-0.044941 -0.230307 -0.369928
-0.040328 -0.230217 -0.369912
-0.035697 -0.230207 -0.369908
-0.031058 -0.230222 -0.369906
-0.026418 -0.230233 -0.369905
-0.021774 -0.230328 -0.369904
-0.017107 -0.23042 -0.369895
-0.012309 -0.230134 -0.369845
-0.007822 -0.229074 -0.36674
-0.007233 -0.229479 -0.369774
-0.002098 -0.229385 -0.369863
-0.00496 -0.228912 -0.367401
0.00229 -0.229799 -0.370815
0.006114 -0.229819 -0.370078
0.011123 -0.229535 -0.369793
0.014058 -0.228582 -0.368021
0.025238 -0.230716 -0.369807
0.02119 -0.228078 -0.369711
-0.059316 -0.22865 -0.372
-0.060186 -0.228634 -0.374546
-0.058912 -0.229793 -0.374546
-0.05427 -0.23094 -0.374546
-0.049628 -0.230898 -0.374546
-0.044986 -0.230341 -0.374546
-0.040345 -0.230275 -0.374546
-0.035703 -0.230275 -0.374546
-0.031061 -0.230333 -0.374546
-0.026419 -0.230364 -0.374546
-0.021777 -0.230309 -0.374546
-0.017136 -0.230652 -0.374546
-0.012494 -0.230576 -0.374546
-0.007852 -0.230024 -0.374546
-0.00321 -0.229922 -0.374546
0.001432 -0.2302 -0.374546
0.006073 -0.230274 -0.374546
0.010715 -0.230389 -0.374546
0.015122 -0.228832 -0.370932
0.015357 -0.229801 -0.374546
0.019999 -0.22925 -0.374546
0.018192 -0.228377 -0.371723
0.02464 -0.230621 -0.374546
0.029282 -0.232966 -0.374546
0.033924 -0.232581 -0.374546
0.036716 -0.228634 -0.374546
-0.058001 -0.229339 -0.378771
-0.060031 -0.227975 -0.378441
-0.054215 -0.230589 -0.379114
-0.049663 -0.231013 -0.379143
-0.045157 -0.230773 -0.379049
-0.040692 -0.230405 -0.379072
-0.036108 -0.230224 -0.379085
-0.031445 -0.230249 -0.379
-0.026696 -0.230341 -0.379095
-0.021893 -0.230471 -0.379181
-0.017167 -0.23067 -0.379175
-0.012507 -0.230737 -0.379179
-0.007863 -0.230519 -0.379182
-0.003219 -0.230252 -0.379184
0.001423 -0.230199 -0.379185
0.006063 -0.23034 -0.379186
0.010705 -0.230601 -0.379183
0.015352 -0.230828 -0.379155
0.019974 -0.231005 -0.378981
0.023804 -0.231307 -0.378331
0.028452 -0.232155 -0.379847
0.032732 -0.231089 -0.378977
0.035312 -0.228277 -0.377706
-0.05921 -0.227745 -0.381538
-0.057322 -0.228311 -0.385574
-0.054619 -0.229995 -0.383661
-0.049761 -0.230928 -0.383729
-0.045221 -0.230814 -0.383567
-0.041504 -0.230446 -0.382847
-0.037289 -0.229779 -0.383837
-0.032532 -0.229615 -0.38307
-0.027821 -0.229724 -0.383068
-0.022446 -0.229865 -0.383855
-0.017316 -0.23039 -0.383721
-0.012583 -0.230707 -0.383752
-0.007931 -0.230703 -0.383776
-0.003279 -0.230474 -0.383795
0.001374 -0.230292 -0.383804
0.006009 -0.230359 -0.383808
0.010637 -0.230692 -0.383817
0.015284 -0.231182 -0.383798
0.020002 -0.231687 -0.383653
0.025184 -0.232269 -0.382977
0.031848 -0.230992 -0.384118
0.034831 -0.227961 -0.382267
-0.053956 -0.229595 -0.388459
-0.056503 -0.227942 -0.389475
-0.05001 -0.230473 -0.388197
-0.045481 -0.230484 -0.388103
-0.040842 -0.229846 -0.387429
-0.034252 -0.228441 -0.386586
-0.037345 -0.228819 -0.38792
-0.029967 -0.228343 -0.386118
-0.025336 -0.228578 -0.386396
-0.021497 -0.228777 -0.387193
-0.019734 -0.228415 -0.388652
-0.017681 -0.229319 -0.387806
-0.012877 -0.230102 -0.388018
-0.008255 -0.230447 -0.388153
-0.003608 -0.230419 -0.388231
0.001121 -0.230259 -0.388333
0.005785 -0.230273 -0.388317
0.010322 -0.230518 -0.388363
0.014925 -0.230941 -0.388426
0.019602 -0.231424 -0.388285
0.024337 -0.231709 -0.387928
0.028675 -0.23181 -0.386744
0.031957 -0.229517 -0.389115
0.03428 -0.227169 -0.387305
-0.054157 -0.228698 -0.391507
-0.055572 -0.227642 -0.391981
-0.050948 -0.229417 -0.391925
-0.046536 -0.229706 -0.392152
-0.042225 -0.229334 -0.39192
-0.038518 -0.22845 -0.391276
-0.017873 -0.22775 -0.390835
-0.014512 -0.227599 -0.393643
-0.013566 -0.2289 -0.391381
-0.009254 -0.229494 -0.391838
-0.004686 -0.229711 -0.392077
2.7e-05 -0.229729 -0.392301
0.005269 -0.229661 -0.392867
0.009391 -0.230059 -0.392021
0.013687 -0.229864 -0.393222
0.018509 -0.230327 -0.392614
0.02317 -0.230435 -0.392304
0.028147 -0.229897 -0.391728
-0.05368 -0.227194 -0.394105
-0.048544 -0.228291 -0.395141
-0.04394 -0.228419 -0.39531
-0.040075 -0.228074 -0.394504
-0.011137 -0.227943 -0.394513
-0.006679 -0.228151 -0.394986
-0.00204 -0.228394 -0.39526
0.002542 -0.228529 -0.395634
0.006371 -0.228538 -0.396196
0.008241 -0.228026 -0.397534
0.009814 -0.228848 -0.395878
0.016854 -0.228623 -0.396206
0.013628 -0.227351 -0.397951
0.021046 -0.228736 -0.395741
0.025476 -0.228426 -0.395334
0.009851 -0.226755 -0.399284
-0.01229 -0.221958 -0.32765
-0.014652 -0.224453 -0.328616
-0.010932 -0.225484 -0.328653
-0.006328 -0.225806 -0.328722
-0.007443 -0.222749 -0.327641
-0.001684 -0.225724 -0.328768
-0.002782 -0.222861 -0.327756
0.002958 -0.225727 -0.328729
0.001862 -0.222845 -0.327812
0.007599 -0.225884 -0.328694
0.006504 -0.2229 -0.327773
0.012233 -0.225828 -0.328659
0.011145 -0.222919 -0.327684
0.016873 -0.225967 -0.328593
0.015786 -0.22293 -0.327572
0.021595 -0.226149 -0.328566
0.020432 -0.223003 -0.327534
0.026263 -0.226201 -0.328475
0.025063 -0.223093 -0.327557
0.030705 -0.226231 -0.328456
0.029536 -0.223263 -0.327632
0.034848 -0.226201 -0.328694
0.033721 -0.223439 -0.327835
0.037426 -0.225476 -0.32887
0.036797 -0.223802 -0.328236
0.039121 -0.223101 -0.329267
-0.022803 -0.222959 -0.330854
-0.024997 -0.225066 -0.332942
-0.01824 -0.224053 -0.329529
0.043583 -0.225692 -0.333056
0.041742 -0.22448 -0.331512
0.044723 -0.22242 -0.332814
-0.031397 -0.222901 -0.336406
-0.033675 -0.223923 -0.338595
-0.031448 -0.226368 -0.338704
-0.027936 -0.222937 -0.333897
0.046709 -0.225241 -0.334892
0.05042 -0.223396 -0.337759
-0.040654 -0.222462 -0.341689
-0.042506 -0.22335 -0.343438
-0.039764 -0.225414 -0.343371
-0.0353 -0.22597 -0.341134
-0.037163 -0.222689 -0.340023
0.053079 -0.225288 -0.342378
0.052245 -0.22385 -0.340666
-0.045687 -0.222322 -0.344814
-0.046839 -0.224085 -0.346882
-0.04389 -0.22502 -0.345867
-0.054638 -0.223115 -0.350262
-0.056175 -0.224848 -0.353623
-0.053496 -0.226271 -0.351992
-0.050416 -0.223325 -0.347997
0.047206 -0.227656 -0.351203
0.055575 -0.226332 -0.350613
-0.057833 -0.225486 -0.357428
0.040262 -0.225193 -0.355648
0.048317 -0.224544 -0.351816
-0.059604 -0.224513 -0.358286
-0.061483 -0.223985 -0.360204
-0.059458 -0.225897 -0.360944
-0.063501 -0.222983 -0.362047
-0.064507 -0.222646 -0.364461
-0.062016 -0.224931 -0.364456
-0.059118 -0.227181 -0.364656
-0.006529 -0.228812 -0.365654
-0.004548 -0.228807 -0.365505
0.016726 -0.227081 -0.366685
0.018426 -0.225616 -0.365483
0.019741 -0.226152 -0.364919
0.02043 -0.225867 -0.366839
-0.064133 -0.223389 -0.368014
-0.063387 -0.224224 -0.370977
-0.060549 -0.226874 -0.369569
0.016537 -0.227863 -0.369481
0.01904 -0.225345 -0.366883
0.018956 -0.226674 -0.368781
-0.064611 -0.223126 -0.372906
-0.063949 -0.223992 -0.374546
-0.063553 -0.224484 -0.374546
-0.062127 -0.22566 -0.378034
-0.064119 -0.222816 -0.380059
-0.061958 -0.224765 -0.381781
-0.061465 -0.223974 -0.385362
-0.059775 -0.226477 -0.384168
-0.059034 -0.226117 -0.387651
-0.060945 -0.222876 -0.389702
-0.035554 -0.227643 -0.38969
-0.031964 -0.226518 -0.389559
-0.027361 -0.226762 -0.388743
-0.022515 -0.227302 -0.38914
-0.057717 -0.22556 -0.391817
-0.059405 -0.222519 -0.393824
-0.035277 -0.226557 -0.394077
-0.02915 -0.224782 -0.391265
-0.031813 -0.224947 -0.392722
-0.025238 -0.225045 -0.391218
-0.021252 -0.225532 -0.392124
-0.020965 -0.224712 -0.394542
-0.017832 -0.226003 -0.394565
-0.056852 -0.224286 -0.395062
-0.05582 -0.223604 -0.397147
-0.054193 -0.224957 -0.396816
-0.050079 -0.226038 -0.397922
-0.045616 -0.227175 -0.397679
-0.040394 -0.226526 -0.398468
-0.035269 -0.226097 -0.398623
-0.031496 -0.224777 -0.395233
-0.031842 -0.22534 -0.397933
-0.029301 -0.224259 -0.39719
-0.022774 -0.224184 -0.396315
-0.023603 -0.22418 -0.399516
-0.020397 -0.224835 -0.397736
-0.017399 -0.225384 -0.397705
-0.013983 -0.225929 -0.397615
-0.008784 -0.226122 -0.397643
-0.003569 -0.226218 -0.398188
0.000706 -0.227141 -0.397777
0.005155 -0.226869 -0.398741
0.016283 -0.227068 -0.398162
0.019146 -0.226843 -0.398009
-0.053831 -0.223146 -0.3994
-0.049317 -0.224246 -0.40096
-0.046912 -0.223651 -0.402926
-0.045433 -0.225195 -0.400705
-0.039604 -0.224749 -0.401914
-0.041889 -0.224672 -0.401792
-0.037791 -0.224009 -0.403657
-0.03663 -0.225288 -0.40154
-0.032618 -0.225151 -0.401454
-0.029026 -0.224348 -0.400526
-0.02137 -0.224582 -0.401269
-0.023229 -0.223881 -0.402981
-0.017869 -0.224601 -0.400796
-0.010974 -0.224225 -0.400582
-0.014778 -0.224145 -0.401384
-0.006386 -0.224337 -0.400395
-0.002587 -0.224434 -0.400932
-0.000209 -0.223987 -0.402984
0.000909 -0.225232 -0.400848
0.00715 -0.225083 -0.401525
0.004103 -0.224821 -0.401932
0.008731 -0.223935 -0.403686
0.01011 -0.224766 -0.402188
-0.044045 -0.223779 -0.403263
-0.034202 -0.224017 -0.404336
-0.030518 -0.22402 -0.40375
-0.019985 -0.223665 -0.404111
-0.016581 -0.223444 -0.40345
0.002259 -0.224129 -0.403646
0.005411 -0.223574 -0.411055
0.005909 -0.223992 -0.411681
0.006073 -0.224054 -0.411681
0.007118 -0.223992 -0.411681
0.006696 -0.223803 -0.414754
0.005397 -0.223143 -0.416018
0.009181 -0.223685 -0.413159
0.008819 -0.223577 -0.415327
0.007441 -0.22301 -0.417562
0.009861 -0.222368 -0.417925
-0.01552 -0.218277 -0.327623
-0.018393 -0.219959 -0.328408
-0.016188 -0.222067 -0.328192
-0.011375 -0.217987 -0.327076
-0.007662 -0.218783 -0.327039
-0.003109 -0.218999 -0.32715
0.001526 -0.219026 -0.327267
0.006168 -0.219034 -0.327261
0.010809 -0.219047 -0.327142
0.015449 -0.219055 -0.326987
0.020078 -0.219085 -0.326913
0.024689 -0.219166 -0.326969
0.029213 -0.219462 -0.327155
0.032855 -0.220327 -0.327426
0.036611 -0.220231 -0.328014
0.039234 -0.218968 -0.328907
-0.025342 -0.218532 -0.3311
-0.028044 -0.219844 -0.332788
-0.025948 -0.222182 -0.332261
-0.02115 -0.219393 -0.329357
0.042179 -0.219657 -0.33075
0.0456 -0.218044 -0.332739
-0.034648 -0.218334 -0.336344
-0.037083 -0.219468 -0.33819
-0.034762 -0.221327 -0.337813
-0.030683 -0.219189 -0.334286
0.047935 -0.220438 -0.334704
-0.041023 -0.218781 -0.339853
-0.043568 -0.22076 -0.342332
-0.048494 -0.220017 -0.344613
-0.05134 -0.21973 -0.345849
-0.048769 -0.22199 -0.346185
-0.046274 -0.21961 -0.343128
-0.059189 -0.218491 -0.350279
-0.060973 -0.219666 -0.35343
-0.058166 -0.221639 -0.3523
-0.054998 -0.218944 -0.34743
-0.059885 -0.222829 -0.356098
-0.062488 -0.220442 -0.356328
-0.063886 -0.220109 -0.357919
-0.065556 -0.220194 -0.361214
-0.062969 -0.221922 -0.359091
-0.06672 -0.220593 -0.365833
0.019587 -0.224804 -0.36586
-0.068814 -0.218948 -0.367706
-0.069572 -0.218521 -0.371346
-0.067202 -0.220616 -0.369605
-0.065212 -0.222426 -0.370986
-0.068195 -0.219558 -0.374546
-0.068461 -0.21935 -0.374546
-0.06743 -0.220128 -0.376194
-0.066736 -0.220238 -0.379273
-0.063432 -0.222301 -0.383582
-0.065727 -0.219841 -0.384139
-0.063324 -0.221145 -0.386997
-0.064906 -0.219101 -0.388349
-0.063196 -0.22004 -0.390081
-0.062082 -0.219879 -0.393259
-0.029414 -0.223935 -0.394294
-0.026776 -0.223842 -0.393381
-0.023595 -0.224166 -0.393894
-0.057741 -0.221942 -0.397038
-0.060342 -0.219899 -0.396455
-0.026275 -0.223829 -0.397268
-0.058733 -0.219297 -0.400018
-0.056745 -0.218934 -0.404227
-0.053819 -0.22102 -0.403197
-0.049772 -0.2227 -0.403197
-0.040569 -0.223362 -0.404304
-0.026372 -0.223544 -0.403187
-0.01244 -0.222645 -0.404144
-0.007504 -0.22282 -0.403491
-0.003173 -0.223318 -0.403273
0.00567 -0.223785 -0.404402
-0.053242 -0.219881 -0.407051
-0.055249 -0.218782 -0.407663
-0.049454 -0.221044 -0.407132
-0.044603 -0.222046 -0.4065
-0.039549 -0.221735 -0.408046
-0.035745 -0.222507 -0.40716
-0.030198 -0.222679 -0.407129
-0.0255 -0.222322 -0.407977
-0.021697 -0.22263 -0.406967
-0.016263 -0.222073 -0.407106
-0.011564 -0.221409 -0.40815
-0.007721 -0.221702 -0.407496
-0.003185 -0.222343 -0.407178
0.001278 -0.223316 -0.406055
0.006024 -0.223335 -0.408815
-0.05305 -0.21931 -0.40968
-0.051802 -0.21935 -0.411681
-0.049628 -0.220028 -0.411681
-0.044986 -0.220438 -0.411681
-0.040345 -0.220503 -0.411681
-0.035703 -0.220844 -0.411681
-0.031061 -0.220988 -0.411681
-0.026419 -0.221202 -0.411681
-0.021777 -0.221358 -0.411681
-0.017136 -0.220872 -0.411681
-0.012494 -0.220632 -0.411681
-0.007852 -0.220877 -0.411681
-0.00321 -0.221252 -0.411681
0.001432 -0.222175 -0.411681
0.010715 -0.22372 -0.411681
-0.048857 -0.220184 -0.416493
-0.052041 -0.219153 -0.417551
-0.044886 -0.220645 -0.416342
-0.040336 -0.220811 -0.416322
-0.035709 -0.22091 -0.416317
-0.031085 -0.221025 -0.416306
-0.026473 -0.22111 -0.416299
-0.021855 -0.221113 -0.416298
-0.017218 -0.220972 -0.416281
-0.012575 -0.220917 -0.416261
-0.00793 -0.221149 -0.416249
-0.003242 -0.221459 -0.416153
0.001788 -0.222163 -0.415521
-0.048966 -0.220261 -0.421185
-0.052065 -0.219025 -0.422241
-0.044873 -0.220821 -0.421007
-0.040343 -0.221082 -0.420957
-0.03573 -0.221169 -0.42094
-0.031134 -0.221172 -0.420907
-0.026636 -0.221137 -0.420816
-0.022173 -0.220975 -0.42084
-0.017581 -0.2207 -0.420821
-0.01292 -0.220596 -0.420657
-0.008284 -0.220968 -0.420608
-0.003657 -0.22138 -0.420581
0.000981 -0.22146 -0.420313
0.005074 -0.221904 -0.41942
-0.049381 -0.219923 -0.424684
-0.051097 -0.218816 -0.425974
-0.045356 -0.22039 -0.425635
-0.040473 -0.221049 -0.42552
-0.035806 -0.221405 -0.425515
-0.031285 -0.221403 -0.425406
-0.026888 -0.22113 -0.425261
-0.02313 -0.220838 -0.424635
-0.018929 -0.220132 -0.425538
-0.01403 -0.2197 -0.424603
-0.009383 -0.219844 -0.424235
-0.004825 -0.220488 -0.424195
-0.000343 -0.220472 -0.424102
-0.04805 -0.219218 -0.427783
-0.044713 -0.219369 -0.429036
-0.043043 -0.218011 -0.431293
-0.04079 -0.220134 -0.429694
-0.036096 -0.221233 -0.429836
-0.031562 -0.221439 -0.429773
-0.027722 -0.221174 -0.429016
-0.023334 -0.220048 -0.429365
-0.015966 -0.218518 -0.427832
-0.01944 -0.218885 -0.429179
-0.01146 -0.217807 -0.426964
-0.00677 -0.218326 -0.426246
-0.039862 -0.218476 -0.432372
-0.037603 -0.217409 -0.434315
-0.036712 -0.220053 -0.433116
-0.032535 -0.220641 -0.433565
-0.027849 -0.220327 -0.433044
-0.021975 -0.217279 -0.431612
-0.024833 -0.218752 -0.433302
-0.034222 -0.218481 -0.435497
-0.030662 -0.218968 -0.435629
-0.027782 -0.217958 -0.435228
-0.015942 -0.213346 -0.327619
-0.018976 -0.216046 -0.328312
-0.012013 -0.214212 -0.327081
-0.007658 -0.214443 -0.32684
-0.003167 -0.214593 -0.326861
0.001451 -0.214632 -0.326953
0.006089 -0.214639 -0.326975
0.010729 -0.214643 -0.326891
0.015369 -0.21465 -0.326762
0.019995 -0.214691 -0.32669
0.024514 -0.21485 -0.32675
0.029013 -0.215112 -0.327013
0.033745 -0.216276 -0.327532
0.036558 -0.213116 -0.328362
0.0375 -0.2167 -0.32829
-0.026333 -0.213073 -0.331017
-0.029139 -0.216168 -0.332597
-0.022114 -0.2147 -0.329394
0.039943 -0.214931 -0.329557
0.043308 -0.215426 -0.331322
-0.036715 -0.213765 -0.335782
-0.038705 -0.216216 -0.337503
-0.032469 -0.214421 -0.334003
-0.050035 -0.212875 -0.341238
-0.052008 -0.214903 -0.343188
-0.049083 -0.217034 -0.34298
-0.045022 -0.21833 -0.34163
-0.045401 -0.215249 -0.34022
-0.042124 -0.214202 -0.338232
-0.054101 -0.214905 -0.344258
-0.056177 -0.215118 -0.345593
-0.053256 -0.217032 -0.345088
-0.063787 -0.213839 -0.35035
-0.065598 -0.215008 -0.353475
-0.062754 -0.216917 -0.35234
-0.05964 -0.214332 -0.347381
-0.064463 -0.218182 -0.356163
-0.067227 -0.215703 -0.356497
-0.068767 -0.215228 -0.357975
-0.070657 -0.214841 -0.360306
-0.068186 -0.21699 -0.360142
-0.072352 -0.214459 -0.362801
-0.073743 -0.214017 -0.365778
-0.071222 -0.215844 -0.363987
-0.068769 -0.218267 -0.364659
-0.071556 -0.216462 -0.368557
-0.074411 -0.214308 -0.371042
-0.072837 -0.215557 -0.374546
-0.073983 -0.214709 -0.374546
-0.071975 -0.215829 -0.378704
-0.0738 -0.214401 -0.379481
-0.069329 -0.218106 -0.377881
-0.072187 -0.215236 -0.382013
-0.071483 -0.215195 -0.385318
-0.06926 -0.217316 -0.382449
-0.067891 -0.217057 -0.387961
-0.071019 -0.214803 -0.389801
-0.067837 -0.215969 -0.393098
-0.070772 -0.214437 -0.394389
-0.064823 -0.217983 -0.391903
-0.068212 -0.215256 -0.396938
-0.070307 -0.2142 -0.398735
-0.064205 -0.216826 -0.397332
-0.06765 -0.214946 -0.400245
-0.06905 -0.214088 -0.402111
-0.062703 -0.216105 -0.401369
-0.065707 -0.21518 -0.40123
-0.062018 -0.215536 -0.404564
-0.059751 -0.217231 -0.403063
-0.06722 -0.214484 -0.402742
-0.058492 -0.217036 -0.407101
-0.061643 -0.215164 -0.40859
-0.058912 -0.215971 -0.411681
-0.061815 -0.214709 -0.411681
-0.05427 -0.2184 -0.411681
-0.058298 -0.215875 -0.415682
-0.060372 -0.214632 -0.416403
-0.054984 -0.217763 -0.414888
-0.058327 -0.215347 -0.418767
-0.057465 -0.215393 -0.42234
-0.055233 -0.217265 -0.419672
-0.053952 -0.217172 -0.425297
-0.057045 -0.215136 -0.426923
-0.053899 -0.216047 -0.430191
-0.056917 -0.214706 -0.431405
-0.04997 -0.217432 -0.42973
-0.046193 -0.218113 -0.430352
-0.017738 -0.217231 -0.429925
-0.014409 -0.216193 -0.429224
-0.054267 -0.215113 -0.433614
-0.056103 -0.214137 -0.434956
-0.050826 -0.215436 -0.433648
-0.04596 -0.215547 -0.433325
-0.041008 -0.21445 -0.433254
-0.044 -0.21372 -0.43424
-0.037299 -0.214362 -0.433891
-0.028096 -0.21568 -0.434679
-0.025744 -0.214866 -0.433045
-0.025666 -0.216786 -0.43405
-0.02238 -0.214261 -0.431425
-0.017983 -0.214855 -0.430466
-0.052947 -0.213947 -0.436332
-0.048715 -0.213104 -0.436269
-0.045553 -0.21292 -0.43504
-0.035194 -0.21585 -0.435111
-0.031439 -0.216105 -0.43537
-0.015848 -0.208922 -0.327798
-0.018833 -0.211531 -0.328343
-0.012168 -0.209614 -0.327278
-0.007757 -0.209937 -0.326969
-0.003181 -0.210021 -0.32689
0.001438 -0.210048 -0.32692
0.006075 -0.210056 -0.326941
0.010705 -0.210068 -0.326905
0.015333 -0.210072 -0.326841
0.019977 -0.210103 -0.326811
0.024551 -0.210379 -0.326883
0.02828 -0.211284 -0.327048
0.03258 -0.21101 -0.327626
0.035454 -0.209302 -0.328416
-0.029148 -0.209008 -0.332021
-0.031787 -0.210539 -0.333127
-0.030055 -0.212619 -0.332548
-0.025266 -0.208722 -0.330594
-0.021549 -0.209545 -0.329305
0.038693 -0.209518 -0.329683
0.042564 -0.211314 -0.33136
-0.039902 -0.209055 -0.335885
-0.042718 -0.211047 -0.337322
-0.040102 -0.213097 -0.336967
-0.034795 -0.210026 -0.334299
-0.05418 -0.208767 -0.341269
-0.056713 -0.210394 -0.343241
-0.054444 -0.212653 -0.343253
-0.050097 -0.209629 -0.339793
-0.046355 -0.210442 -0.338562
-0.058753 -0.210279 -0.344279
-0.060784 -0.210464 -0.345614
-0.058008 -0.212456 -0.345099
-0.068259 -0.209249 -0.35044
-0.070172 -0.210347 -0.353491
-0.067369 -0.212261 -0.352379
-0.064202 -0.209686 -0.347456
-0.069182 -0.213486 -0.356142
-0.071861 -0.211124 -0.356544
-0.07338 -0.210674 -0.358048
-0.075253 -0.210217 -0.360426
-0.072896 -0.212678 -0.360515
-0.07699 -0.209776 -0.362985
-0.078507 -0.209397 -0.365877
-0.075996 -0.211356 -0.364278
-0.076791 -0.212069 -0.36887
-0.079634 -0.210054 -0.371085
-0.077479 -0.212523 -0.374546
-0.08065 -0.210067 -0.374546
-0.076716 -0.212349 -0.378681
-0.07963 -0.209618 -0.380388
-0.076762 -0.211494 -0.383815
-0.079389 -0.208763 -0.385478
-0.074021 -0.213762 -0.382936
-0.076587 -0.210949 -0.388171
-0.07853 -0.20876 -0.389769
-0.073845 -0.213277 -0.387161
-0.076674 -0.210432 -0.391197
-0.075969 -0.210607 -0.394552
-0.073912 -0.212677 -0.391816
-0.073151 -0.212762 -0.396785
-0.075479 -0.21035 -0.399028
-0.072025 -0.212523 -0.401958
-0.074869 -0.209947 -0.403782
-0.064863 -0.214724 -0.40358
-0.071774 -0.211493 -0.406941
-0.073887 -0.209917 -0.407783
-0.0677 -0.21353 -0.406062
-0.063956 -0.214493 -0.406764
-0.072089 -0.210693 -0.410139
-0.072797 -0.210067 -0.411681
-0.068195 -0.212397 -0.411681
-0.063553 -0.213992 -0.411681
-0.067877 -0.211639 -0.416392
-0.071069 -0.209938 -0.417616
-0.063625 -0.213412 -0.415627
-0.067489 -0.211291 -0.421261
-0.07046 -0.209834 -0.422457
-0.063735 -0.212724 -0.420613
-0.060337 -0.214138 -0.419866
-0.067276 -0.211066 -0.425886
-0.070057 -0.209759 -0.427018
-0.063626 -0.212429 -0.425291
-0.060098 -0.213864 -0.424231
-0.067151 -0.210764 -0.430068
-0.069351 -0.209771 -0.43064
-0.063541 -0.212165 -0.429927
-0.059923 -0.213677 -0.428887
-0.033729 -0.210372 -0.431019
-0.030497 -0.211098 -0.431268
-0.025767 -0.211912 -0.431055
-0.067364 -0.210302 -0.432881
-0.066373 -0.210163 -0.436278
-0.063916 -0.21142 -0.434432
-0.059367 -0.213153 -0.434057
-0.043575 -0.211027 -0.434334
-0.041022 -0.209613 -0.432664
-0.037394 -0.210357 -0.431681
-0.033937 -0.213132 -0.433449
-0.029584 -0.213702 -0.433495
-0.063613 -0.210716 -0.438367
-0.065183 -0.209831 -0.43975
-0.060233 -0.211413 -0.438508
-0.055699 -0.212166 -0.438358
-0.051323 -0.211546 -0.438774
-0.048635 -0.210089 -0.438346
-0.046128 -0.20938 -0.436231
-0.062119 -0.209773 -0.441439
-0.057787 -0.209011 -0.441886
-0.053478 -0.209025 -0.440813
-0.050305 -0.208796 -0.439876
-0.018025 -0.207882 -0.328327
-0.016061 -0.205661 -0.328046
-0.012487 -0.204668 -0.327627
-0.007812 -0.205253 -0.327271
-0.003197 -0.205392 -0.327145
0.001435 -0.205418 -0.327129
0.006074 -0.205427 -0.327138
0.010703 -0.205454 -0.327135
0.015243 -0.205544 -0.327126
0.01983 -0.205466 -0.327151
0.02461 -0.205595 -0.327234
0.02947 -0.206883 -0.327475
0.032808 -0.203845 -0.328168
0.033339 -0.207066 -0.328064
-0.029588 -0.204506 -0.332229
-0.032092 -0.206998 -0.333095
-0.025959 -0.204941 -0.330982
-0.021834 -0.205144 -0.329634
-0.01827 -0.205163 -0.328596
0.0359 -0.205518 -0.329022
0.038772 -0.205789 -0.330259
0.041748 -0.206444 -0.331668
-0.04442 -0.204294 -0.336113
-0.047157 -0.20649 -0.33746
-0.044321 -0.208412 -0.337093
-0.039397 -0.204251 -0.334997
-0.035249 -0.205158 -0.334061
-0.058679 -0.204148 -0.341398
-0.061249 -0.205705 -0.343296
-0.059003 -0.208031 -0.343291
-0.054552 -0.205074 -0.339923
-0.050814 -0.205825 -0.338637
-0.0633 -0.205578 -0.344334
-0.065292 -0.205781 -0.34569
-0.06257 -0.207762 -0.345142
-0.071864 -0.205281 -0.35052
-0.073812 -0.205784 -0.352969
-0.071686 -0.207645 -0.352354
-0.068513 -0.205233 -0.347677
-0.073649 -0.208748 -0.356064
-0.07617 -0.205631 -0.355831
-0.077847 -0.205608 -0.3581
-0.079595 -0.205175 -0.360362
-0.077411 -0.207766 -0.360528
-0.081691 -0.204194 -0.362627
-0.082829 -0.204448 -0.365678
-0.080531 -0.206429 -0.36425
-0.081464 -0.207361 -0.368787
-0.084242 -0.204687 -0.370503
-0.082121 -0.20857 -0.374546
-0.084784 -0.205425 -0.374546
-0.082215 -0.207551 -0.377965
-0.084328 -0.204289 -0.380276
-0.081811 -0.206845 -0.382648
-0.083416 -0.204255 -0.384954
-0.081693 -0.206102 -0.386224
-0.080903 -0.206241 -0.389095
-0.077809 -0.208931 -0.393038
-0.079981 -0.206159 -0.393628
-0.077777 -0.208222 -0.396775
-0.079703 -0.205284 -0.398802
-0.07741 -0.207717 -0.401473
-0.079329 -0.204926 -0.403624
-0.0766 -0.207553 -0.406834
-0.079151 -0.204646 -0.408383
-0.077479 -0.206105 -0.411681
-0.078114 -0.205425 -0.411681
-0.072837 -0.210044 -0.411681
-0.078159 -0.204731 -0.414264
-0.076343 -0.20567 -0.417897
-0.074348 -0.208024 -0.415094
-0.073372 -0.208064 -0.420005
-0.07562 -0.20563 -0.422199
-0.072891 -0.208059 -0.424714
-0.075284 -0.205598 -0.426862
-0.072208 -0.208216 -0.429923
-0.075204 -0.205584 -0.431637
-0.037386 -0.206341 -0.429267
-0.035101 -0.208565 -0.429866
-0.072236 -0.207809 -0.435011
-0.075143 -0.20536 -0.436315
-0.069264 -0.209312 -0.433993
-0.043488 -0.206237 -0.433817
-0.040287 -0.206167 -0.431056
-0.072045 -0.207169 -0.439718
-0.074785 -0.204946 -0.440695
-0.068303 -0.20892 -0.43893
-0.048364 -0.206832 -0.43868
-0.04654 -0.204484 -0.43653
-0.072026 -0.20618 -0.443851
-0.074203 -0.204707 -0.443592
-0.068265 -0.207733 -0.443842
-0.064588 -0.208705 -0.443076
-0.060559 -0.207321 -0.444822
-0.057486 -0.205498 -0.443969
-0.054956 -0.205319 -0.442298
-0.051391 -0.205276 -0.440424
-0.073199 -0.20443 -0.446424
-0.071159 -0.204732 -0.450436
-0.06879 -0.206393 -0.448463
-0.064154 -0.206799 -0.447996
-0.058944 -0.203692 -0.446214
-0.061022 -0.204971 -0.448313
-0.068509 -0.205837 -0.452711
-0.07016 -0.204411 -0.454534
-0.065457 -0.20581 -0.453239
-0.062215 -0.203849 -0.452317
-0.067658 -0.205351 -0.456082
-0.068964 -0.204225 -0.457901
-0.063676 -0.204192 -0.456008
-0.065579 -0.205027 -0.456992
-0.067041 -0.204549 -0.458637
-0.011803 -0.199432 -0.327814
-0.015252 -0.202073 -0.328127
-0.007757 -0.200476 -0.327576
-0.003197 -0.20073 -0.327466
0.001433 -0.200776 -0.327436
0.006074 -0.200786 -0.327434
0.01072 -0.200814 -0.327444
0.015335 -0.200985 -0.327475
0.019168 -0.201634 -0.327481
0.024042 -0.200101 -0.327676
0.02936 -0.201308 -0.327762
0.033017 -0.200471 -0.328253
-0.031816 -0.203707 -0.332986
-0.030159 -0.201334 -0.332463
-0.026701 -0.20017 -0.331297
-0.022061 -0.200681 -0.329894
-0.018183 -0.201056 -0.3288
0.035388 -0.201212 -0.3291
0.039071 -0.202386 -0.330806
-0.049003 -0.199639 -0.33614
-0.051573 -0.201685 -0.337548
-0.04883 -0.203722 -0.337173
-0.044386 -0.199641 -0.335063
-0.04049 -0.200418 -0.334623
-0.036113 -0.200773 -0.333929
-0.032466 -0.200896 -0.333125
-0.063081 -0.199451 -0.341502
-0.065765 -0.200964 -0.343392
-0.063536 -0.203316 -0.343361
-0.058953 -0.200466 -0.340171
-0.055169 -0.201099 -0.338843
-0.067785 -0.200841 -0.344493
-0.069693 -0.201225 -0.346102
-0.067047 -0.203043 -0.345259
-0.071941 -0.202223 -0.348514
-0.075326 -0.202407 -0.351808
-0.077863 -0.20144 -0.35352
-0.079997 -0.201101 -0.355752
-0.078281 -0.203554 -0.356296
-0.081835 -0.200954 -0.358114
-0.083474 -0.201177 -0.3614
-0.08105 -0.202737 -0.359337
-0.085168 -0.201788 -0.366288
-0.08697 -0.199891 -0.367297
-0.087775 -0.199834 -0.37044
-0.086276 -0.201843 -0.369771
-0.086762 -0.202498 -0.374546
-0.08767 -0.200783 -0.374546
-0.086308 -0.202162 -0.377512
-0.087772 -0.199079 -0.379083
-0.086241 -0.201262 -0.38082
-0.085483 -0.20146 -0.384127
-0.082599 -0.204408 -0.388263
-0.084582 -0.201441 -0.388857
-0.082423 -0.203541 -0.391896
-0.084299 -0.200441 -0.394001
-0.082014 -0.202741 -0.396568
-0.083943 -0.199627 -0.398973
-0.081598 -0.202285 -0.401283
-0.082932 -0.200245 -0.403215
-0.081424 -0.202108 -0.405967
-0.083123 -0.199852 -0.407262
-0.082121 -0.201339 -0.411681
-0.082555 -0.200783 -0.411681
-0.080904 -0.201889 -0.414793
-0.080588 -0.201373 -0.41812
-0.078699 -0.203589 -0.416886
-0.078069 -0.203343 -0.420245
-0.080013 -0.200816 -0.422199
-0.077608 -0.203006 -0.424612
-0.079595 -0.200442 -0.426737
-0.07747 -0.202955 -0.429269
-0.079806 -0.199842 -0.431723
-0.077391 -0.202921 -0.433879
-0.078965 -0.200651 -0.435782
-0.044877 -0.202529 -0.434106
-0.077135 -0.202785 -0.438335
-0.078966 -0.199996 -0.439691
-0.051479 -0.201931 -0.439217
-0.049394 -0.201507 -0.437182
-0.049332 -0.203794 -0.438687
-0.046872 -0.201479 -0.435306
-0.07637 -0.202496 -0.442992
-0.078611 -0.199183 -0.444597
-0.056738 -0.201206 -0.443502
-0.053889 -0.20141 -0.440767
-0.076035 -0.201569 -0.446817
-0.075433 -0.200864 -0.450457
-0.073694 -0.203004 -0.449158
-0.060032 -0.201522 -0.449197
-0.072789 -0.20247 -0.452747
-0.074553 -0.200312 -0.45474
-0.071634 -0.202218 -0.457627
-0.074135 -0.199982 -0.459176
-0.064417 -0.203203 -0.459246
-0.071788 -0.201206 -0.462084
-0.073842 -0.199886 -0.462102
-0.067888 -0.202778 -0.461625
-0.064329 -0.201623 -0.463053
-0.073014 -0.199681 -0.464692
-0.07092 -0.20012 -0.467089
-0.069417 -0.201115 -0.465662
-0.065805 -0.20088 -0.466162
-0.06854 -0.199446 -0.469294
-0.011847 -0.194705 -0.327895
-0.015043 -0.197571 -0.328224
-0.007676 -0.19573 -0.327753
-0.003183 -0.196062 -0.327692
0.001432 -0.196132 -0.327671
0.00607 -0.196144 -0.327665
0.010721 -0.196159 -0.327668
0.015442 -0.196269 -0.327707
0.020665 -0.196851 -0.32781
0.023447 -0.195512 -0.328006
0.023679 -0.197149 -0.327977
0.025325 -0.196744 -0.32797
0.028096 -0.195792 -0.327874
0.034768 -0.198344 -0.328824
0.032394 -0.1971 -0.328133
0.035147 -0.194615 -0.328918
-0.026958 -0.194957 -0.330955
-0.030016 -0.198012 -0.332276
-0.022383 -0.196029 -0.3299
-0.018353 -0.196499 -0.328883
0.024406 -0.196082 -0.328069
-0.052966 -0.195276 -0.336348
-0.055552 -0.196838 -0.337741
-0.053113 -0.19874 -0.337319
-0.048976 -0.195251 -0.334968
-0.045931 -0.196537 -0.334595
-0.041974 -0.195809 -0.333857
-0.037236 -0.196719 -0.333502
-0.033183 -0.19729 -0.332971
-0.067155 -0.194925 -0.341497
-0.070296 -0.195832 -0.343706
-0.068089 -0.198543 -0.343643
-0.062965 -0.195099 -0.339863
-0.059041 -0.196825 -0.339058
-0.073955 -0.194291 -0.345446
-0.075636 -0.196402 -0.347999
-0.072796 -0.198586 -0.347114
-0.077678 -0.196342 -0.34951
-0.080033 -0.196364 -0.351478
-0.077674 -0.199012 -0.351462
-0.082301 -0.19633 -0.353425
-0.084456 -0.196075 -0.355477
-0.082072 -0.198733 -0.355831
-0.086568 -0.1952 -0.357461
-0.08772 -0.195531 -0.36079
-0.085444 -0.197636 -0.359358
-0.086428 -0.198825 -0.363723
-0.088934 -0.196296 -0.365983
-0.089729 -0.196719 -0.371274
-0.090336 -0.196142 -0.374546
-0.089194 -0.196114 -0.379216
-0.086928 -0.199364 -0.383033
-0.088457 -0.196243 -0.38321
-0.086712 -0.198557 -0.386853
-0.088197 -0.195441 -0.38833
-0.086401 -0.197995 -0.391517
-0.088024 -0.195044 -0.393043
-0.086175 -0.197336 -0.396038
-0.08794 -0.194414 -0.397959
-0.08609 -0.196671 -0.3995
-0.085064 -0.197369 -0.403385
-0.0851 -0.197038 -0.40841
-0.085792 -0.196142 -0.411681
-0.082349 -0.199997 -0.416231
-0.084708 -0.19691 -0.416632
-0.082477 -0.198843 -0.420018
-0.084783 -0.195533 -0.422201
-0.082076 -0.198139 -0.42448
-0.08374 -0.19589 -0.426209
-0.081931 -0.197616 -0.428753
-0.083951 -0.19511 -0.429167
-0.051278 -0.195371 -0.431391
-0.082901 -0.195909 -0.432618
-0.081205 -0.197479 -0.436156
-0.054209 -0.195839 -0.43595
-0.053438 -0.194199 -0.43318
-0.052125 -0.196992 -0.43418
-0.049405 -0.199473 -0.434889
-0.081021 -0.196838 -0.440935
-0.05268 -0.199029 -0.437713
-0.05561 -0.196704 -0.439556
-0.080797 -0.196063 -0.444981
-0.077474 -0.1994 -0.448631
-0.079673 -0.196576 -0.449252
-0.077252 -0.19847 -0.452473
-0.079405 -0.195765 -0.454482
-0.076819 -0.197798 -0.457076
-0.079173 -0.194941 -0.459464
-0.076074 -0.19772 -0.461733
-0.078069 -0.194922 -0.463837
-0.075646 -0.196995 -0.465297
-0.074826 -0.196645 -0.467658
-0.072772 -0.198542 -0.467507
-0.072976 -0.196555 -0.470467
-0.071662 -0.196521 -0.474102
-0.068577 -0.197947 -0.473107
-0.068922 -0.197454 -0.47631
-0.071195 -0.196199 -0.477945
-0.068176 -0.196647 -0.479822
-0.070295 -0.195508 -0.481484
-0.012611 -0.189783 -0.327911
-0.015496 -0.19306 -0.328234
-0.00778 -0.191043 -0.327789
-0.003184 -0.191403 -0.327761
0.001425 -0.191499 -0.327753
0.006041 -0.191523 -0.327747
0.010682 -0.19152 -0.327743
0.015355 -0.191555 -0.327751
0.020113 -0.191775 -0.327787
0.025184 -0.195094 -0.327999
0.024977 -0.192553 -0.327863
0.02886 -0.191999 -0.327851
0.032053 -0.192317 -0.32811
-0.040543 -0.189464 -0.331795
-0.042517 -0.192053 -0.332906
-0.038908 -0.193028 -0.332738
-0.034526 -0.193868 -0.332425
-0.03566 -0.190364 -0.331423
-0.03101 -0.195078 -0.33209
-0.03059 -0.191391 -0.330962
-0.026057 -0.190802 -0.329976
-0.023063 -0.192182 -0.329639
-0.019194 -0.191662 -0.328752
-0.054622 -0.190392 -0.335711
-0.05712 -0.193421 -0.337344
-0.050526 -0.192007 -0.334742
-0.046279 -0.191981 -0.333618
-0.069412 -0.19038 -0.340583
-0.071131 -0.192622 -0.342596
-0.064972 -0.190895 -0.339035
-0.060627 -0.19243 -0.33818
-0.078075 -0.190572 -0.346024
-0.08013 -0.191783 -0.348308
-0.077973 -0.194012 -0.34823
-0.074485 -0.190433 -0.343493
-0.08214 -0.191585 -0.349628
-0.084342 -0.191559 -0.351423
-0.082163 -0.193969 -0.351451
-0.086404 -0.191608 -0.353519
-0.088209 -0.191932 -0.356664
-0.085674 -0.193689 -0.354514
-0.089909 -0.19272 -0.36151
-0.091401 -0.190708 -0.362354
-0.09207 -0.190554 -0.365389
-0.090847 -0.19287 -0.36484
-0.091036 -0.193654 -0.368755
-0.092426 -0.190716 -0.369844
-0.091404 -0.193699 -0.374546
-0.092356 -0.1915 -0.374546
-0.091288 -0.192763 -0.376631
-0.090458 -0.193118 -0.379942
-0.090063 -0.192436 -0.38504
-0.089858 -0.192147 -0.389801
-0.089825 -0.19193 -0.394415
-0.089985 -0.19137 -0.398452
-0.087016 -0.194943 -0.401933
-0.089123 -0.192036 -0.402775
-0.087005 -0.19448 -0.406082
-0.089054 -0.191576 -0.408185
-0.086762 -0.194514 -0.411681
-0.088813 -0.1915 -0.411681
-0.086927 -0.194018 -0.414935
-0.088651 -0.19121 -0.417121
-0.086692 -0.193504 -0.419391
-0.08802 -0.191202 -0.420986
-0.086687 -0.192551 -0.422854
-0.085888 -0.193041 -0.426371
-0.08569 -0.192919 -0.430743
-0.087304 -0.191255 -0.432559
-0.087351 -0.19114 -0.435416
-0.085275 -0.193166 -0.43472
-0.083065 -0.195325 -0.435475
-0.055486 -0.192004 -0.435162
-0.05397 -0.190943 -0.431752
-0.085965 -0.192152 -0.437666
-0.085447 -0.191952 -0.440908
-0.083417 -0.194519 -0.438491
-0.082836 -0.194045 -0.443114
-0.084883 -0.191626 -0.445282
-0.082372 -0.193779 -0.447606
-0.0846 -0.191552 -0.449906
-0.082081 -0.193618 -0.452243
-0.084435 -0.191395 -0.454506
-0.081811 -0.193105 -0.456723
-0.083588 -0.191296 -0.458261
-0.081771 -0.192313 -0.460109
-0.08077 -0.192309 -0.463132
-0.076504 -0.194892 -0.467486
-0.079048 -0.192396 -0.467185
-0.076468 -0.193337 -0.470588
-0.076331 -0.192433 -0.473779
-0.074103 -0.194826 -0.472826
-0.073617 -0.19463 -0.476107
-0.075804 -0.191936 -0.477944
-0.072757 -0.194012 -0.480791
-0.075128 -0.191302 -0.482233
-0.072868 -0.192209 -0.484343
-0.074268 -0.19085 -0.484947
-0.016546 -0.185704 -0.328018
-0.019034 -0.187757 -0.328327
-0.016556 -0.189459 -0.328186
-0.011816 -0.185646 -0.327858
-0.007903 -0.186471 -0.327805
-0.003226 -0.186771 -0.327783
0.001433 -0.186869 -0.327779
0.005941 -0.187031 -0.327769
0.010483 -0.186996 -0.327765
0.015189 -0.186934 -0.32776
0.019908 -0.187075 -0.327743
-0.044475 -0.185643 -0.331561
-0.047017 -0.187695 -0.332793
-0.044332 -0.189652 -0.332549
-0.040649 -0.186196 -0.330637
-0.037103 -0.186074 -0.33
-0.032289 -0.186991 -0.329768
-0.027583 -0.187322 -0.329347
-0.022756 -0.1881 -0.328861
-0.063285 -0.184783 -0.336476
-0.06532 -0.187144 -0.337724
-0.062029 -0.188757 -0.337353
-0.058626 -0.190403 -0.336933
-0.058143 -0.18669 -0.335797
-0.054336 -0.186813 -0.334878
-0.050579 -0.187237 -0.333847
-0.073264 -0.186243 -0.340559
-0.07506 -0.187591 -0.342184
-0.072581 -0.189576 -0.341826
-0.068921 -0.186397 -0.338679
-0.081551 -0.186636 -0.345897
-0.084421 -0.186681 -0.348048
-0.082341 -0.189459 -0.348334
-0.078041 -0.186703 -0.343568
-0.087647 -0.185019 -0.349582
-0.089185 -0.186645 -0.352306
-0.086613 -0.188946 -0.351716
-0.09096 -0.18585 -0.353886
-0.091916 -0.186118 -0.356463
-0.089924 -0.188137 -0.355151
-0.090878 -0.189557 -0.359029
-0.092709 -0.187078 -0.36099
-0.093535 -0.186941 -0.365667
-0.093855 -0.186993 -0.370262
-0.093889 -0.186858 -0.374546
-0.091754 -0.190695 -0.378616
-0.093186 -0.187102 -0.378525
-0.09164 -0.189705 -0.382414
-0.093058 -0.186348 -0.383717
-0.091486 -0.189288 -0.387089
-0.092999 -0.186223 -0.38845
-0.091452 -0.189223 -0.391743
-0.093116 -0.186242 -0.393088
-0.091526 -0.189103 -0.39631
-0.093355 -0.18616 -0.39773
-0.0915 -0.188922 -0.400933
-0.093792 -0.185513 -0.402998
-0.091297 -0.188835 -0.405867
-0.092844 -0.186655 -0.407887
-0.091404 -0.188328 -0.411681
-0.092655 -0.186858 -0.411681
-0.090877 -0.188624 -0.414988
-0.092836 -0.185907 -0.416246
-0.090316 -0.188578 -0.420219
-0.092529 -0.18579 -0.421158
-0.090459 -0.18808 -0.42518
-0.092538 -0.185733 -0.425794
-0.088076 -0.190556 -0.424408
-0.090836 -0.187832 -0.429119
-0.092651 -0.185855 -0.430356
-0.088177 -0.190398 -0.429106
-0.055268 -0.187218 -0.43098
-0.089887 -0.188804 -0.43382
-0.092741 -0.18575 -0.435075
-0.057518 -0.187579 -0.435275
-0.090402 -0.18778 -0.438877
-0.092595 -0.184977 -0.440022
-0.087765 -0.190285 -0.438473
-0.058977 -0.186234 -0.437005
-0.090526 -0.186946 -0.442135
-0.089673 -0.187077 -0.445553
-0.087847 -0.189331 -0.442868
-0.087134 -0.189392 -0.447759
-0.089389 -0.186881 -0.449921
-0.086908 -0.189349 -0.452493
-0.089358 -0.186028 -0.4549
-0.086119 -0.189121 -0.457656
-0.088105 -0.186402 -0.459214
-0.0858 -0.187939 -0.46231
-0.087972 -0.184976 -0.463309
-0.083345 -0.190465 -0.461593
-0.085721 -0.186885 -0.465393
-0.084544 -0.186634 -0.468704
-0.082502 -0.18943 -0.466506
-0.081816 -0.188146 -0.471407
-0.083689 -0.18627 -0.471438
-0.078985 -0.190834 -0.471036
-0.082677 -0.186125 -0.474123
-0.080776 -0.186733 -0.478118
-0.078944 -0.189478 -0.475398
-0.07785 -0.189156 -0.480307
-0.079952 -0.185903 -0.482804
-0.076562 -0.188745 -0.484948
-0.078692 -0.18563 -0.487304
-0.076033 -0.187597 -0.488904
-0.075486 -0.186625 -0.492007
-0.035241 -0.180202 -0.328233
-0.037215 -0.182416 -0.328773
-0.033949 -0.183336 -0.328738
-0.02954 -0.183764 -0.328618
-0.030641 -0.180918 -0.328193
-0.024909 -0.184251 -0.328436
-0.025978 -0.181282 -0.328152
-0.02098 -0.185244 -0.328266
-0.020814 -0.182106 -0.328079
-0.016204 -0.181702 -0.327984
-0.013088 -0.182821 -0.32792
-0.008651 -0.182012 -0.327924
-0.003648 -0.182489 -0.327898
0.001493 -0.182072 -0.327912
0.005985 -0.182705 -0.327872
0.009732 -0.183374 -0.327837
0.014405 -0.182291 -0.327901
-0.048354 -0.184617 -0.332652
-0.044479 -0.181904 -0.330702
-0.040886 -0.182361 -0.329608
-0.067355 -0.180785 -0.336509
-0.06991 -0.182807 -0.337656
-0.067212 -0.184455 -0.337398
-0.06257 -0.180818 -0.335353
-0.058757 -0.181913 -0.334894
-0.054093 -0.183004 -0.334181
-0.077521 -0.181642 -0.340893
-0.079322 -0.183238 -0.342513
-0.07677 -0.185054 -0.341873
-0.073128 -0.181932 -0.338686
-0.08134 -0.183694 -0.344056
-0.084649 -0.183213 -0.346223
-0.090711 -0.181778 -0.350334
-0.092247 -0.183145 -0.353258
-0.090387 -0.184574 -0.351699
-0.088022 -0.181072 -0.347718
-0.093964 -0.18237 -0.356964
-0.094648 -0.183193 -0.362041
-0.095069 -0.183296 -0.366727
-0.095108 -0.183013 -0.371328
-0.094954 -0.182216 -0.374546
-0.094597 -0.182866 -0.385158
-0.094638 -0.182966 -0.38982
-0.094867 -0.183165 -0.394372
-0.095205 -0.183221 -0.39859
-0.096498 -0.181157 -0.399421
-0.096988 -0.18031 -0.402851
-0.095651 -0.182689 -0.401601
-0.095592 -0.182719 -0.404262
-0.094869 -0.183713 -0.407951
-0.095867 -0.182216 -0.411681
-0.094853 -0.182895 -0.417538
-0.094529 -0.182897 -0.42236
-0.094562 -0.18298 -0.427013
-0.094764 -0.183013 -0.431653
-0.057127 -0.183545 -0.431493
-0.094792 -0.18267 -0.4363
-0.058448 -0.181339 -0.432969
-0.05862 -0.184446 -0.43443
-0.094801 -0.181446 -0.440745
-0.091466 -0.1853 -0.443892
-0.093058 -0.182834 -0.444272
-0.091367 -0.184656 -0.447522
-0.093156 -0.181787 -0.448534
-0.091464 -0.183948 -0.451708
-0.093348 -0.181144 -0.451998
-0.092288 -0.181727 -0.455233
-0.090323 -0.183034 -0.459224
-0.090062 -0.18179 -0.463468
-0.086712 -0.184942 -0.467182
-0.088797 -0.181417 -0.467973
-0.085765 -0.183972 -0.470982
-0.087257 -0.180477 -0.472885
-0.085185 -0.182701 -0.474444
-0.08463 -0.181226 -0.478289
-0.083035 -0.184485 -0.476853
-0.082282 -0.183943 -0.48032
-0.083428 -0.180939 -0.482453
-0.081885 -0.18291 -0.483606
-0.080977 -0.182796 -0.486504
-0.077589 -0.185448 -0.490697
-0.038115 -0.177906 -0.328311
-0.040539 -0.178727 -0.328816
-0.038763 -0.180115 -0.32852
-0.034858 -0.177205 -0.328112
-0.031213 -0.177769 -0.328068
-0.026695 -0.178144 -0.328084
-0.021995 -0.178493 -0.328106
-0.017281 -0.178769 -0.328112
-0.012496 -0.179307 -0.328083
-0.010489 -0.176751 -0.328402
-0.008452 -0.178515 -0.32817
-0.004694 -0.17898 -0.328158
-0.000253 -0.179 -0.328148
0.003248 -0.178475 -0.328161
0.006137 -0.179033 -0.328101
-0.048426 -0.176288 -0.331772
-0.043644 -0.177847 -0.330119
-0.006803 -0.175781 -0.328659
-0.001925 -0.176197 -0.328612
0.002408 -0.176292 -0.328565
-0.071047 -0.176516 -0.336723
-0.073682 -0.178065 -0.337812
-0.071457 -0.180193 -0.337423
-0.066938 -0.176302 -0.335676
-0.063213 -0.177082 -0.334949
-0.058941 -0.177407 -0.334243
-0.05498 -0.177982 -0.333705
-0.080801 -0.176626 -0.341165
-0.08392 -0.177438 -0.343238
-0.082057 -0.180517 -0.343157
-0.076536 -0.177571 -0.339128
-0.086757 -0.176069 -0.344773
-0.088456 -0.177821 -0.346636
-0.085811 -0.179618 -0.345397
-0.091097 -0.177394 -0.348757
-0.093649 -0.178887 -0.352555
-0.095576 -0.175965 -0.354123
-0.096263 -0.177161 -0.357114
-0.095314 -0.178868 -0.35595
-0.095687 -0.179912 -0.3595
-0.096873 -0.176955 -0.360471
-0.096068 -0.180302 -0.363925
-0.097414 -0.176916 -0.365023
-0.096252 -0.180126 -0.368706
-0.097585 -0.176894 -0.369949
-0.096046 -0.179255 -0.374546
-0.096815 -0.177574 -0.374546
-0.095998 -0.179711 -0.377794
-0.097519 -0.176825 -0.379001
-0.096032 -0.179769 -0.382429
-0.097521 -0.176859 -0.383783
-0.096055 -0.179872 -0.387105
-0.097616 -0.177017 -0.388442
-0.096201 -0.180201 -0.391706
-0.097932 -0.177309 -0.39306
-0.096477 -0.180661 -0.396094
-0.098434 -0.177509 -0.398277
-0.098842 -0.176901 -0.402957
-0.096341 -0.181302 -0.406787
-0.098367 -0.177387 -0.407588
-0.096046 -0.181873 -0.411681
-0.098132 -0.177574 -0.411681
-0.096492 -0.180495 -0.414939
-0.098083 -0.177101 -0.416138
-0.096278 -0.180153 -0.419581
-0.097797 -0.177094 -0.420924
-0.096155 -0.180168 -0.424259
-0.097763 -0.177181 -0.425603
-0.096264 -0.180357 -0.428906
-0.097997 -0.177229 -0.430255
-0.055993 -0.179578 -0.429883
-0.096412 -0.180263 -0.433538
-0.098147 -0.177033 -0.434928
-0.057454 -0.178349 -0.432873
-0.096399 -0.17968 -0.438059
-0.098013 -0.176267 -0.439931
-0.096211 -0.17859 -0.441722
-0.095125 -0.179237 -0.445103
-0.09498 -0.178811 -0.449595
-0.096349 -0.176697 -0.451065
-0.096677 -0.175522 -0.45426
-0.094886 -0.178668 -0.453101
-0.094549 -0.178105 -0.456068
-0.093998 -0.176969 -0.459932
-0.092456 -0.180099 -0.458288
-0.091749 -0.179764 -0.461725
-0.092801 -0.177129 -0.463578
-0.091151 -0.178928 -0.465676
-0.092384 -0.175462 -0.467502
-0.09073 -0.177636 -0.468834
-0.08949 -0.17688 -0.472436
-0.08632 -0.179739 -0.476041
-0.087622 -0.176644 -0.476847
-0.086241 -0.178038 -0.478543
-0.082428 -0.180884 -0.485584
-0.039941 -0.176512 -0.328816
-0.036571 -0.175133 -0.328484
-0.032298 -0.174812 -0.328321
-0.027817 -0.175098 -0.328311
-0.023199 -0.175478 -0.328364
-0.018576 -0.175831 -0.328424
-0.01408 -0.176217 -0.328456
0.005634 -0.176769 -0.328423
-0.048648 -0.17164 -0.331928
-0.051977 -0.174405 -0.332731
-0.044484 -0.17267 -0.330791
-0.039503 -0.173003 -0.329525
-0.03431 -0.172038 -0.329024
-0.029638 -0.171954 -0.328925
-0.02501 -0.172121 -0.328994
-0.02039 -0.172341 -0.329115
-0.015843 -0.172648 -0.329202
-0.011 -0.173075 -0.32925
-0.006746 -0.171903 -0.32968
-0.002828 -0.17257 -0.32956
-0.071836 -0.171528 -0.336509
-0.074694 -0.174233 -0.337678
-0.06771 -0.172444 -0.335545
-0.063336 -0.172682 -0.33467
-0.058944 -0.17285 -0.333948
-0.055073 -0.173281 -0.333358
-0.081601 -0.171497 -0.340529
-0.084393 -0.173809 -0.342557
-0.077959 -0.172955 -0.338964
-0.087927 -0.171661 -0.344451
-0.08981 -0.174573 -0.346584
-0.091747 -0.174111 -0.348117
-0.093844 -0.174133 -0.350579
-0.095716 -0.172531 -0.352725
-0.096887 -0.173326 -0.356201
-0.098109 -0.172937 -0.360735
-0.09912 -0.172886 -0.365829
-0.099299 -0.173759 -0.371198
-0.100038 -0.172933 -0.374546
-0.099337 -0.173589 -0.38036
-0.099253 -0.173723 -0.385152
-0.099409 -0.173947 -0.389723
-0.099752 -0.174269 -0.39398
-0.100937 -0.172165 -0.394755
-0.101359 -0.171758 -0.397785
-0.100263 -0.174103 -0.397229
-0.100205 -0.174396 -0.400868
-0.10145 -0.171552 -0.402048
-0.100171 -0.174114 -0.405109
-0.101483 -0.171056 -0.406939
-0.100264 -0.173534 -0.408514
-0.100398 -0.172933 -0.411681
-0.099662 -0.173781 -0.417502
-0.099451 -0.173889 -0.42232
-0.099529 -0.173954 -0.427006
-0.099705 -0.173957 -0.431676
-0.053926 -0.176108 -0.431527
-0.099766 -0.173723 -0.436304
-0.099782 -0.173078 -0.440335
-0.096857 -0.176779 -0.443865
-0.098803 -0.173778 -0.444593
-0.096696 -0.176393 -0.447533
-0.098439 -0.173488 -0.4501
-0.098884 -0.171574 -0.454649
-0.095789 -0.175388 -0.457775
-0.097353 -0.172296 -0.458624
-0.095746 -0.173931 -0.460589
-0.094638 -0.173788 -0.463797
-0.091195 -0.175001 -0.470935
-0.048266 -0.167527 -0.3323
-0.051683 -0.169924 -0.332712
-0.04467 -0.168228 -0.331558
-0.040211 -0.168471 -0.330774
-0.035464 -0.168405 -0.330245
-0.030733 -0.168296 -0.330074
-0.026081 -0.168342 -0.33013
-0.02145 -0.168459 -0.330284
-0.016885 -0.168701 -0.330417
-0.012971 -0.169394 -0.330332
-0.008471 -0.168289 -0.330953
-0.072043 -0.16685 -0.336468
-0.075302 -0.169633 -0.337512
-0.067936 -0.167858 -0.335545
-0.063463 -0.16817 -0.334728
-0.058872 -0.16822 -0.33403
-0.054121 -0.168146 -0.333344
-0.082264 -0.166476 -0.340268
-0.085071 -0.16934 -0.342082
-0.078405 -0.168225 -0.338664
-0.090711 -0.167848 -0.345819
-0.093082 -0.16822 -0.348052
-0.09174 -0.171502 -0.347511
-0.087776 -0.167056 -0.343447
-0.095154 -0.166765 -0.350173
-0.096362 -0.169232 -0.352815
-0.094623 -0.170225 -0.350346
-0.097972 -0.168719 -0.356409
-0.099539 -0.168721 -0.360906
-0.100706 -0.167329 -0.362618
-0.101372 -0.167473 -0.36552
